16.278708999999999 98.084198000000001 36.997917000000001
2.7041900000000001 -5.6966400000000004 167.598007
29.402901 -0.61139100000000002 151.520004
-20.480101000000001 60.058200999999997 96.217796000000007
3.2382 3.4112 67.672302000000002
71.623703000000006 2.6023100000000001 145.95500200000001
79.756041999999994 0.83018400000000003 142.310349
-73.417038000000005 -3.018005 141.341553
-6.7519299999999998 14.6983 7.2671400000000004
18.650801000000001 65.810599999999994 106.896004
-7.6135899157805156 1.8971684742886203 172.89977192656417
13.551885 101.400215 7.7081920000000004
1.4703599999999999 87.477599999999995 119.605003
-2.1457899999999999 -13.7835 138.36799600000001
-3.2906209999999998 109.15248099999999 56.336655
-1.138282 -13.546836000000001 86.254531999999998
5.9765199999999998 -1.3269500000000001 183.445007
-14.2471 103.777 34.209099000000002
3.1284700000000001 111.556999 105.730003
-32.258800999999998 3.5294699999999999 154.645996
-71.299599000000001 -1.294842 142.94482400000001
8.1369399999999992 3.8891100000000001 45.746498000000003
-58.566600999999999 1.72725 148.14999399999999
78.100982999999999 -3.069445 136.726654
-6.9689500000000004 7.5266299999999999 177.06399500000001
-14.080249 103.735519 23.576756
-0.96992299999999998 10.060841999999999 166.73028600000001
1.1631199999999999 119.13800000000001 99.550003000000004
-10.133100000000001 92.305999999999997 7.2141599999999997
-3.5795699999999999 117.418999 41.933601000000003
-1.31917 -4.2139100000000003 163.84300200000001
-10.1364 -0.174147 35.947899
19.812000000000001 61.160499999999999 83.191497999999996
-8.6246200000000002 -13.0776 110.44499999999999
-11.4008 100.614998 30.472798999999998
-7.3542100000000001 2.7785899999999999 161.341995
-23.446524 11.700875 147.34522999999999
10.8728 6.6352799999999998 38.087600999999999
5.2620699999999996 71.494202000000001 119.969002
-13.858000000000001 99.095100000000002 70.917900000000003
12.845139 -3.228828 155.23632799999999
-6.6543900000000002 99.643303000000003 113.831001
-28.239588000000001 0.070829000000000003 151.59120200000001
85.126566689350312 -2.1918092477738407 140.17148967000176
71.713798999999995 3.6086 141.08599899999999
8.3295700000000004 -9.8629599999999993 77.053702999999999
2.26905 118.049431 92.394630000000006
-83.145606999999998 -0.25267400000000001 143.14941400000001
12.801600000000001 0.28571800000000003 115.712997
-3.8827970000000001 -15.522696 119.224419
-20.170400999999998 19.823 85.569503999999995
-14.112273999999999 14.654942999999999 155.29710399999999
30.498884 6.0329680000000003 156.317825
10.8653 98.462997000000001 22.275801000000001
37.014702 4.8731299999999997 153.00900300000001
-12.154301999999999 13.492558000000001 18.136652000000002
-21.153099000000001 42.112301000000002 73.446899000000002
2.0291731936509723 117.54571796648372 99.539430557914258
28.361000000000001 0.078364000000000003 151.64700300000001
-18.070999 14.5273 139.779999
5.7473099999999997 -5.6650299999999998 181.266998
-76.032448000000002 -3.219563 138.41194200000001
3.83073 12.5123 116.325996
18.217099999999999 64.797095999999996 106.550003
-12.759228 -2.2540840000000002 117.793762
-0.84612500000000002 -10.920999999999999 149.04299900000001
-36.143459 4.0778670000000004 153.210342
81.758849999999995 2.971733 137.45683299999999
12.077400000000001 14.302300000000001 58.564898999999997
48.814872999999999 10.634797000000001 148.47851600000001
-16.162043000000001 -0.41455799999999998 156.816147
-5.5741800000000001 111.606003 63.272300999999999
13.8794 10.114699999999999 10.7768
-12.0625 103.185997 30.388300000000001
-2.2286999999999999 0.70468200000000003 186.412003
4.9109400000000001 -11.7082 76.486801
-10.9947 6.7193699999999996 37.032200000000003
1.22651 -15.654199999999999 134.68899500000001
-10.295845999999999 -1.0562860000000001 48.186092000000002
-10.597300000000001 -4.2510399999999997 71.406600999999995
13.527100000000001 104.226997 17.512198999999999
2.4286500000000002 -8.8884399999999992 172.75500500000001
0.875386 116.567001 39.389301000000003
2.6724899999999998 106.387001 87.9636
-7.6760799999999998 0.87426099999999995 179.33599899999999
-43.427864 11.134738 143.88282799999999
-5.2766999999999999 9.8386499999999995 122.06999999999999
3.2455099999999999 81.671798999999993 74.440903000000006
19.760414000000001 -0.57031500000000002 146.376419
7.4615 14.2799 61.532600000000002
-0.41940499999999997 107.648003 62.461799999999997
23.408339999999999 12.030222 147.89498900000001
-75.346123000000006 1.405554 142.21667500000001
8.5712629664985389 2.1188827600603473 176.97542993017817
0.74371100000000001 -11.9659 79.806197999999995
-7.4810100000000004 -14.1553 120.495003
15.9536 86.366698999999997 58.097099
-12.238300000000001 12.1698 19.7073
-53.923901000000001 12.0814 145.16000399999999
31.175599999999999 2.16737 145.33500699999999
-2.7274020000000001 -8.6979760000000006 168.67860400000001
-81.025634999999994 -1.081145 144.23393200000001
3.0943299999999998 -8.8844200000000004 171.703003
-4.746003 -7.1034620000000004 168.15271000000001
-9.5195100000000004 14.7508 12.615500000000001
14.0868 93.936501000000007 12.9543
16.889700000000001 97.783501000000001 45.708500000000001
-2.1447799999999999 -9.6508260000000003 171.768326
-8.1028000000000002 2.2216900000000002 55.966202000000003
40.393313999999997 9.6898160000000004 142.04510500000001
75.947226999999998 -2.912391 137.63958700000001
-12.2384 100.36799600000001 9.2064000000000004
-12.129543 101.80933400000001 59.790840000000003
-9.0388300000000008 5.4025819999999998 175.34416200000001
22.730204000000001 2.4581580000000001 159.344086
-6.5561699999999998 -5.8427899999999999 176.92541499999999
13.386799999999999 12.901400000000001 14.4481
11.0581 -10.0945 109.846001
81.612267000000003 -1.440507 143.66992200000001
-68.498870999999994 3.2251560000000001 146.81163000000001
12.563727 6.3950399999999998 44.164932
-18.4224 0.61353100000000005 142.783997
-42.303513000000002 5.7657319999999999 141.54984999999999
15.991300000000001 96.472899999999996 46.819800999999998
-0.016188000000000001 -6.3565040000000002 163.509445
-20.566500000000001 90.288002000000006 70.709502999999998
-4.9938399999999996 8.2637699999999992 166.604004
44.166504000000003 6.9699390000000001 141.32695000000001
-79.159774999999996 -1.460871 144.95150799999999
78.279387999999997 4.9443669999999997 140.932602
1.7783124388158067 -7.5083188702616104 175.93384173608081
-7.6882010000000003 0.15686700000000001 175.30635100000001
-13.279500000000001 12.3497 15.9825
-19.807099999999998 13.247 74.651199000000005
0 31.392599000000001 114.656998
-1.70932 109.28800200000001 107.52600099999999
13.130800000000001 -3.3045800000000001 111.489998
34.499099999999999 -2.3247599999999999 147.33299299999999
-26.53425 0.069106000000000001 147.73782299999999
10.558299999999999 -3.1123699999999999 42.489798999999998
-2.4226294195948124 -7.2408763670312712 176.35640153813847
22.630419 7.7832460000000001 143.84429900000001
-14.311 -1.4629700000000001 72.022696999999994
15.8543 96.957603000000006 24.517401
6.9581530000000003 -1.2556719999999999 167.686691
-23.658999999999999 82.945899999999995 82.363602
23.393999000000001 42.159599 91.364998
22.206709518592262 9.4139843956516707 144.16537745315023
82.545770951409011 1.4809104605951939 141.8516957536682
77.034805000000006 -2.2886510000000002 142.57093800000001
17.1541 17.838799999999999 77.532996999999995
19.258600000000001 69.647201999999993 86.170601000000005
-0.61447700000000005 -9.9564400000000006 74.682602000000003
11.5924 81.904799999999994 65.910797000000002
-11.553100000000001 -11.5291 146.68899500000001
-16.553087000000001 12.047919 158.85041799999999
19.662099999999999 91.662497999999999 2.5500400000000001
5.5400400000000003 -1.2137100000000001 160.28100599999999
12.292 6.4925199999999998 37.039299
1.5581400000000001 -10.4199 74.338898
-22.900023999999998 6.8940000000000001 159.852844
-2.6676099999999998 -14.458399999999999 139.73100299999999
-70.942215000000004 -0.590978 141.01338200000001
-76.406234999999995 -1.8314569999999999 137.68287699999999
1.434763 109.602425 46.559845000000003
0.95997600000000005 -10.453454000000001 171.44094799999999
-7.9930700000000003 -14.286199999999999 140.56300400000001
7.635154 16.555765000000001 9.7679729999999996
25.954257999999999 2.6084960000000001 145.178055
19.658438 8.5409079999999999 159.96257
62.837001999999998 9.8152500000000007 144.34899899999999
-4.0453099999999997 117.209 42.967700999999998
-6.0862499999999997 13.9002 127.50599699999999
9.7877399999999994 5.4960399999999998 36.792599000000003
13.347799999999999 23.309601000000001 106.296997
-0.86319400000000002 -12.9458 146.07600400000001
-5.9813999999999998 10.0206 117.29299899999999
78.569503999999995 -1.088832 142.20536799999999
-4.9085000000000001 111.189003 50.490200000000002
-8.9562399999999993 2.95295 65.542603
10.768000000000001 -11.7705 85.745498999999995
-15.967000000000001 97.466697999999994 27.999300000000002
-76.186797999999996 0.82609500000000002 142.33299299999999
19.8125 89.396004000000005 59.908501000000001
2.0165600000000001 -9.4368599999999994 165.55299400000001
-19.414498999999999 16.896899999999999 78.379097000000002
45.787101999999997 6.8365 141.32600400000001
-10.207100000000001 6.3727900000000002 38.104999999999997
7.5614800000000004 -13.035299999999999 105.568001
12.3347 99.349297000000007 68.220398000000003
29.309307 8.7610749999999999 155.55607599999999
14.6889 12.119 11.7507
0.265627 -15.504576999999999 134.32830799999999
-76.463714999999993 6.3527129999999996 142.64683500000001
-83.863602 -1.1518299999999999 139.091003
-2.0092400000000001 50.406199999999998 64.479500000000002
16.695699999999999 3.0298699999999998 130.42100500000001
9.3902800000000006 0.30508800000000003 56.365699999999997
6.6543900000000002 -1.24779 182.23800700000001
76.095657000000003 -1.695192 141.320618
