12.973356000000001 -8.9744299999999999 126.26593800000001
11.404400000000001 -6.2502500000000003 73.666602999999995
-2.1896800000000001 -4.3277400000000004 157.884995
0 36.507899999999999 114.546997
14.330500000000001 -3.9943900000000001 127.12599899999999
84.734725999999995 -2.1378050000000002 139.672211
-18.809221000000001 2.260364 143.87197900000001
8.1979000000000006 -14.4697 122.070999
17.260000000000002 97.321404000000001 16.873899000000002
63.498500999999997 4.18248 141.320007
10.498943000000001 99.613365000000002 18.441967000000002
27.863700999999999 11.15 149.69099399999999
2.2799 9.8104499999999994 166.77799999999999
11.5434 16.618601000000002 139.55200199999999
-10.3827 6.4783099999999996 37.035899999999998
6.3081399999999999 5.7579099999999999 167.669006
-0.49499500000000002 16.391399 138.13299599999999
22.183405 6.0093379999999996 144.27908300000001
-9.3805200000000006 0.31554199999999999 47.891499000000003
0.011297 -7.2577230000000004 183.21005199999999
-12.728400000000001 13.9871 109.443001
-2.2604000000000002 116.899002 102.677002
-24.852357999999999 -0.963897 149.23019400000001
16.228289 -3.9881929999999999 154.047943
11.484695 98.679458999999994 29.007840999999999
-7.3344449999999997 -3.338301 175.745102
24.732115 0.88536400000000004 146.52024800000001
54.831501000000003 0.579843 143.52900700000001
-9.2903000000000002 9.3848500000000001 12.499499999999999
9.3049300000000006 -12.343400000000001 100.594002
14.3842 104.30300099999999 18.886800999999998
-12.7743 91.650902000000002 54.467998999999999
4.83779 -6.2584600000000004 181.962006
3.5332400000000002 -16.1371 116.56300400000001
-14.364243999999999 94.580841000000007 50.981537000000003
-6.3861699999999999 8.3619599999999998 178.953003
7.4200499999999998 5.80654 179.90299999999999
19.868099000000001 12.5946 138.891998
-77.471474000000001 -2.56427 139.49949599999999
-18.727599999999999 90.776702999999998 4.8762600000000003
2.5189789999999999 -7.8486099999999999 175.45478800000001
-13.7453 18.525499 106.352997
14.624221 13.935997 155.25035099999999
-20.204599000000002 17.134398999999998 85.402000000000001
3.0967699999999998 108.293999 68.078400000000002
8.1216200000000001 107.769997 87.212799000000004
23.888468 -1.9081790000000001 150.10524000000001
-29.748899000000002 10.5901 151.807007
12.4041 -2.6200100000000002 44.973498999999997
3.5381200000000002 116.275002 60.122199999999999
-3.9404499999999998 15.550700000000001 130.89700300000001
0.79491800000000001 110.478996 101.078003
49.897399999999998 12.183999999999999 145.14700300000001
-13.644299999999999 96.439301 38.393599999999999
19.260351 1.7905759999999999 158.531937
11.807600000000001 96.498099999999994 45.448700000000002
-21.672612999999998 7.2511159999999997 143.51686100000001
6.53979 -15.3239 121.539001
3.4487239999999999 -8.1779460000000004 173.97822600000001
-9.2781099999999999 6.0401199999999999 23.959
-4.3305999999999996 9.2071900000000007 66.668602000000007
37.935200000000002 11.7873 145.76400799999999
0.97996099999999997 -13.603851000000001 86.585921999999997
0.33893800000000002 103.71700300000001 88.749495999999994
11.878268 103.51312299999999 19.290873000000001
8.0308130000000002 2.9368029999999998 174.89413500000001
0 15.0837 138.27499399999999
14.403600000000001 17.7789 143.13600199999999
-0.24712400000000001 -11.042706000000001 173.519791
-32.280399000000003 2.6242999999999999 153.27299500000001
44.242148999999998 3.1737519999999999 150.950684
6.3544700000000001 -4.2859800000000003 181.24400299999999
0.61447700000000005 91.181503000000006 75.408996999999999
-13.533099999999999 0.30160399999999998 37.274600999999997
17.579201000000001 97.411597999999998 17.967199000000001
-15.176600000000001 3.7183199999999998 45.552399000000001
8.0125799999999998 9.7625600000000006 16.893101000000001
-1.7263900000000001 120.24700199999999 43.068100000000001
-65.585296999999997 1.2729699999999999 143.17700199999999
10.433306999999999 92.988265999999996 8.5277340000000006
20.853895000000001 -2.0873469999999998 152.965744
18.936368999999999 2.512829 143.27685500000001
-23.198328 7.8206540000000002 159.50827000000001
-79.278046000000003 -0.36265999999999998 143.83822599999999
7.6029299999999997 -1.8811199999999999 157.76800499999999
16.657699999999998 93.102599999999995 11.754099999999999
18.409901000000001 22.07 96.391700999999998
20.599599999999999 16.185600000000001 86.890900000000002
83.473534000000001 1.626844 138.622772
47.998900999999996 11.8409 143.86099200000001
17.273099999999999 99.897300999999999 46.049500000000002
13.6654 103.886002 30.349701
-12.869899999999999 1.6016600000000001 120.537003
17.232201 14.648999999999999 1.5930599999999999
6.6007499999999997 6.0553999999999997 170.63299599999999
-77.830512999999996 5.5827039999999997 143.41333
-12.943597 101.016594 62.290337000000001
-64.216797 6.6551200000000001 147.50700399999999
-67.317497000000003 7.4031500000000001 146.046997
-17.450800000000001 99.531197000000006 60.665900999999998
-13.894 15.019600000000001 61.551102
78.296959000000001 -2.3381530000000001 137.94014000000001
20.2498 12.8621 148.33599899999999
83.162993999999998 -3.4334250000000002 141.32872
-2.3871899999999999 111.30100299999999 101.212997
-2.2799 9.8104499999999994 166.77799999999999
-18.606992999999999 7.0517649999999996 159.60192900000001
-57.928299000000003 1.4308609999999999 147.81310999999999
4.3696099999999998 -5.7254699999999996 176.33200099999999
-4.88171 77.045303000000004 74.709198000000001
4.8475400000000004 9.1330200000000001 172.36000100000001
76.804382000000004 3.4793099999999999 141.26147499999999
11.302 14.877599999999999 1.0386500000000001
-62.304400999999999 8.6478800000000007 141.61199999999999
-15.7545 -4.5113300000000001 133.703003
74.490707 -3.2259199999999999 141.045502
-3.9960589999999998 111.04894299999999 92.579063000000005
-8.5734100000000009 10.2117 12.9184
3.3796200000000001 111.76300000000001 109.83000199999999
11.1435 81.457297999999994 117.998001
9.1903299999999994 1.2421599999999999 51.222900000000003
-8.2929999999999993 55.789397999999998 114.366997
2.3871899999999999 11.1647 174.01199299999999
10.177899999999999 5.1653500000000001 15.5863
64.685997 8.0392799999999998 146.50700399999999
-4.2533510000000003 116.43647799999999 62.727642000000003
-28.982500000000002 -1.4969399999999999 148.00700399999999
14.030025999999999 96.761497000000006 25.779287
-9.0221940000000007 -13.802999 131.405563
18.085599999999999 -7.25793 84.365600999999998
10.728300000000001 98.650597000000005 70.880095999999995
-4.588514 -5.0716910000000004 164.916763
-46.593102000000002 11.880000000000001 145.30900600000001
1.8824399999999999 31.036698999999999 114.478996
83.457984999999994 0.26064999999999999 142.74189799999999
0.40965099999999999 -3.0922200000000002 157.79200700000001
15.162082 2.2890920000000001 158.14250200000001
-14.601100000000001 10.2616 161.41700700000001
-15.618871 -1.7841940000000001 155.21087600000001
70.998299000000003 1.77251 141.23199500000001
11.224 3.9171800000000001 23.4939
12.4602 18.432600000000001 143.90299999999999
78.593918000000002 -2.971174 143.14593500000001
-17.124901000000001 -2.5049999999999999 75.694396999999995
-34.083098999999997 6.5548400000000004 154.03900100000001
-10.9025 99.504302999999993 55.411900000000003
-20.256001000000001 3.9737499999999999 144.26499899999999
11.475099999999999 16.6996 140.158005
11.1144 99.786102 38.274501999999998
-15.994802 12.518333999999999 7.1721139999999997
-15.4595 3.08325 41.712502000000001
-72.052886999999998 4.7043559999999998 141.203033
-71.791190999999998 6.2088229999999998 144.524811
-22.664621 9.3262230000000006 144.29231300000001
-17.893248 7.8241389999999997 159.77667199999999
3.062354 10.934256 180.13769500000001
-0.84368600000000005 106.424004 107.84699999999999
19.702299 15.656000000000001 77.206496999999999
-3.6941799999999998 108.82399700000001 68.283400999999998
-11.562099999999999 103.550003 54.506199000000002
-3.1643829999999999 110.377098 90.040474000000003
-6.1593999999999998 103.231003 109.682999
-14.661799999999999 103.43499799999999 38.271099
12.353735 -1.1582220000000001 48.375748000000002
1.5044900000000001 119.674004 55.557597999999999
-64.910697999999996 8.5973000000000006 142.88200399999999
63.238899000000004 0.51122500000000004 145.399002
72.797539 -2.866911 140.19464099999999
-74.990814 -1.8288329999999999 138.72387699999999
83.677672999999999 -1.7064950000000001 142.003693
14.6526 69.640197999999998 77.939696999999995
15.222899999999999 -0.040388 60.519401999999999
-16.4284 95.920501999999999 20.025998999999999
-15.0303 -7.6488399999999999 98.783400999999998
-3.2894000000000001 117.20700100000001 78.959098999999995
-9.7877399999999994 5.4960399999999998 36.792599000000003
19.384947 95.071678000000006 9.3187239999999996
-69.832397 4.0108350000000002 141.95961
-7.7346000000000004 -6.5508100000000002 155.13400300000001
0.14891699999999999 117.595505 38.602488999999998
-8.3182799999999997 90.802802999999997 64.049201999999994
14.984 61.460299999999997 74.958198999999993
0 106.76799800000001 103.148003
-11.9872 4.8243900000000002 15.730499999999999
-4.9215200000000001 95.267097000000007 74.625998999999993
18.478200999999999 2.2589399999999999 140.470001
20.180201 7.1779999999999999 135.14700300000001
-6.7811899999999996 7.1062099999999999 173.58000200000001
-76.482192999999995 3.5745369999999999 141.50465399999999
7.4443539999999997 2.1205069999999999 180.829025
12.168200000000001 102.470001 30.482400999999999
41.615898000000001 10.5715 150.17799400000001
9.9828100000000006 8.2596500000000006 121.824997
25.299209999999999 1.700844 158.22779800000001
9.2620799999999992 6.3190309999999998 42.409111000000003
-10.768000000000001 -11.7705 85.745498999999995
18.246168000000001 99.917274000000006 18.860678
16.066600999999999 1.0592200000000001 67.168098000000001
-18.056177000000002 92.719138999999998 9.2452360000000002
74.968102000000002 3.3551600000000001 141.175995
18.283100000000001 63.334999000000003 105.633003
-11.121499999999999 17.834199999999999 145.63200399999999
0.35265200000000002 120.013245 49.175078999999997
46.144409000000003 8.2304410000000008 150.89743000000001
6.5983099999999997 90.788901999999993 117.70500199999999
-82.817618999999993 0.64449000000000001 140.479919
-3.1577299999999999 111.56999999999999 44.782501000000003
14.434013999999999 -7.9397060000000002 134.726471
-9.7682300000000009 1.5566800000000001 63.394500999999998
6.2349899999999998 16.173100000000002 66.572097999999997
15.466799999999999 14.0932 0.26516099999999998
5.8984899999999998 -15.308199999999999 105.24900100000001
53.921500999999999 11.9725 145.04299900000001
13.286799999999999 0.84913499999999997 36.361801
9.9592480000000005 96.038803000000001 60.832630000000002
-24.856318000000002 11.897817999999999 148.57737700000001
-9.4044670000000004 95.660728000000006 8.3623239999999992
3.06751 109.74900100000001 111.710999
10.5046 42.749099999999999 65.191199999999995
20.543500999999999 49.107101 99.809501999999995
-11.034599999999999 98.478797999999998 10.874599999999999
9.9868299999999994 99.430496000000005 6.0021300000000002
-16.400200000000002 94.199402000000006 52.935901999999999
12.215199999999999 103.903999 38.238300000000002
75.915099999999995 -1.2615099999999999 141.074005
18.909800000000001 -3.1697199999999999 94.512000999999998
71.018783999999997 -1.196844 141.549103
-9.366422 5.0092309999999998 175.77754200000001
8.1028000000000002 2.2216900000000002 55.966202000000003
-4.8768000000000002 -14.942 141.04899599999999
-17.006436999999998 -3.1875719999999998 139.191574
-14.0037 -1.4782200000000001 124.780998
24.2255 42.104999999999997 87.455001999999993
-0.41209000000000001 107.75 58.600299999999997
9.7584800000000005 -2.58718 44.960799999999999
-6.1862199999999996 13.0449 61.983601
-36.846198999999999 9.9792900000000007 152.574997
42.721321000000003 7.409643 141.49676500000001
21.44313 0.36094500000000002 158.00654599999999
8.1613199999999999 59.658698999999999 115.560997
27.962015000000001 11.219423000000001 151.008453
10.587199999999999 100.862999 21.547599999999999
-14.084785 101.22418999999999 7.0493439999999996
-3.6990500000000002 109.443001 55.796298999999998
21.978141999999998 8.7552409999999998 141.44830300000001
2.1896800000000001 26.792400000000001 114.456001
-4.5957350000000003 -7.5697799999999997 175.263992
4.6530009999999997 -1.028044 165.50779700000001
-1.65324 119.319 92.322997999999998
24.909058000000002 6.1029109999999998 159.210587
-51.967998999999999 6.4251699999999996 140.955994
69.700264000000004 -0.38923099999999999 144.26019299999999
-23.653475 0.68972100000000003 146.480591
11.3459 65.820999 115.557999
10.9628 100.800003 53.654800000000002
13.9086 5.49566 21.212098999999998
2.608368 -8.4920659999999994 170.381348
-80.859427999999994 5.5908480000000003 141.09042400000001
-7.0347799999999996 -15.322100000000001 128.041
-45.459499000000001 11.526999999999999 147.13299599999999
11.1286 99.475600999999997 60.679001
-16.753557000000001 100.169754 14.135624999999999
-11.548299999999999 4.9364400000000002 159.05200199999999
7.2298600000000004 7.9077000000000002 164.391006
-10.611774 99.884743 46.014305
-34.455399 5.7430599999999998 142.470001
43.3797 8.30185 150.983002
16.860001 15.450875 150.49693300000001
-9.0440299999999993 17.6266 69.539101000000002
-15.3261 14.1678 152.70399499999999
12.7309 -2.1318199999999998 115.260002
-79.104423999999995 4.8454740000000003 142.89239499999999
-75.599791999999994 0.59553599999999995 141.67596399999999
-40.790286999999999 3.011711 143.658569
11.7065 95.827399999999997 48.4529
82.246864000000002 -2.7993450000000002 143.75311300000001
1.52156 107.17800099999999 109.26300000000001
79.266402999999997 4.0347809999999997 140.52278100000001
-82.405738999999997 -1.5964970000000001 143.738708
15.1418 13.526318 156.389511
2.6756540000000002 96.221832000000006 117.23299400000001
-19.4786 13.703200000000001 151.541
-1.10703 -14.4137 142.479004
22.016300000000001 49.170898000000001 96.445098999999999
-77.928725999999997 -3.339941 136.968323
-83.544105999999999 -1.5834509999999999 141.55898999999999
4.3146139999999997 111.63164500000001 92.120131999999998
-11.799099999999999 97.829597000000007 30.9389
2.2286999999999999 0.70468200000000003 186.412003
-17.282108000000001 101.17126500000001 7.8256550000000002
-19.107299999999999 8.1750799999999995 69.800301000000005
73.188507000000001 1.917527 141.36251799999999
43.542751000000003 10.974408 143.72143600000001
4.453144 -1.98963 165.86958300000001
-0.82661799999999996 113.397003 111.488998
-11.3751 -12.885300000000001 144.20399499999999
11.385028 102.58674600000001 20.867189
11.244528000000001 104.559372 52.970455000000001
-25.583599 11.319800000000001 147.58999600000001
-28.092289000000001 0.077770000000000006 155.20573400000001
-77.239081999999996 -3.1593490000000002 138.007721
0.67299799999999999 -5.6086 155.800995
-3.7570440000000001 -4.8862420000000002 169.27096599999999
1.8288 106.273003 108.23699999999999
-83.166686999999996 -2.3193079999999999 141.133545
28.846001000000001 11.303699999999999 149.66999799999999
-14.333519000000001 12.98564 107.332741
61.293900000000001 4.19292 148.72799699999999
7.1250099999999996 14.9259 64.432700999999994
13.638 18.278199999999998 143.841003
42.453097999999997 6.47403 152.15299999999999
4.1330900000000002 10.432600000000001 179.746002
-9.0294000000000008 5.3076800000000004 174.12600699999999
-12.860099999999999 3.67252 113.50299800000001
16.308001000000001 -5.29338 139.283005
10.6412 -0.51901799999999998 156.432999
11.9506 4.0186099999999998 18.699200000000001
-80.834198000000001 1.93537 141.341003
-16.375999 96.030602000000002 19.098400000000002
13.159800000000001 77.511100999999996 68.599402999999995
0 11.8949 175.98599200000001
-50.476272999999999 4.212828 151.400711
-11.521000000000001 104.887001 49.780299999999997
-15.613099999999999 5.2369599999999998 49.320999
-2.1555499999999999 109.89299800000001 89.334098999999995
-12.250821999999999 0.39149200000000001 34.973480000000002
7.610487 1.5670519999999999 170.99527
-7.0738000000000003 4.0995699999999999 164.25500500000001
-81.166831999999999 4.3334289999999998 137.74414100000001
-38.293598000000003 9.9269400000000001 141.945007
-1.87757 109.103996 50.512797999999997
13.0722 102.07199900000001 105.165001
11.6043 101.449997 58.833697999999998
78.080551 4.2700189999999996 140.70607000000001
-63.868099000000001 5.7963800000000001 141.21099899999999
-8.1579069999999998 3.5082399999999998 173.618225
-0.75659299999999996 10.001217 169.41790800000001
-43.800583000000003 10.411102 149.382462
-6.5081959999999999 -3.2004640000000002 181.84431499999999
3.1894300000000002 18.126899999999999 146.94399999999999
12.6966 105.605003 47.842700999999998
5.9960300000000002 -14.916 119.931
9.0798319999999997 4.8442689999999997 175.888733
3.6576 10.614599999999999 164.67799400000001
10.880000000000001 89.625298000000001 3.0558900000000002
81.768303000000003 4.1768479999999997 137.41023300000001
78.611473000000004 -3.3337669999999999 137.81954999999999
-82.484397999999999 1.6331519999999999 142.21688800000001
21.560300999999999 25.317101000000001 82.356200999999999
17.172899000000001 97.597999999999999 47.158999999999999
14.112 104.473 54.776797999999999
-25.834994999999999 0.83698799999999995 147.14061000000001
-3.297895 -3.7319840000000002 164.54298399999999
16.1861 -5.70533 76.227798000000007
44.507739999999998 11.929926999999999 145.301208
8.9570469999999993 4.262543 36.319285999999998
8.3490800000000007 78.231200999999999 119.537003
69.594596999999993 2.6861619999999999 141.815338
-19.180499999999999 6.1098699999999999 71.576401000000004
11.9747 99.933197000000007 65.017899
12.7262 96.598800999999995 42.359402000000003
-1.755636 -9.2121049999999993 173.276566
7.9321099999999998 2.3498899999999998 60.134498999999998
18.983899999999998 68.605002999999996 85.765998999999994
2.2604000000000002 108.37599899999999 67.842101999999997
-5.9301899999999996 8.2704299999999993 181.475998
-14.3216 101.952003 13.6435
15.4253 0.764208 43.753399000000002
-13.4795 11.045 4.7234400000000001
2.3091599999999999 106.655998 110.498001
7.9572200000000004 4.6625059999999996 175.37387100000001
81.229423999999995 4.3997330000000003 141.296783
-19.581636 2.7728640000000002 159.49807699999999
-9.2659199999999995 16.883800999999998 139.61999499999999
-15.301 -6.2808200000000003 135.57200599999999
13.003399999999999 94.122497999999993 12.582800000000001
-3.1049000000000002 -8.5951690000000003 170.65533400000001
4.3509200000000003 85.458297999999999 72.888199
0.82573700000000005 -16.341759 118.054924
69.771102999999997 1.753679 141.92353800000001
-12.321199999999999 -6.5216200000000004 112.964996
8.6785599999999992 90.830596999999997 61.105300999999997
-17.638100000000001 14.220700000000001 151.078003
7.4858900000000004 4.60806 66.893203999999997
17.383900000000001 89.840202000000005 4.8201599999999996
-17.917400000000001 2.6786400000000001 64.177902000000003
-16.107680999999999 101.30832700000001 7.2376839999999998
9.4439200000000003 4.91228 27.383101
-12.264699999999999 101.121002 13.7531
21.553801 69.699698999999995 94.577202
11.9872 4.8243900000000002 15.730499999999999
5.0572249999999999 -7.2333809999999996 175.761627
-10.631399999999999 13.562799999999999 18.7742
-18.013500000000001 13.8102 151.45100400000001
-2.6602899999999998 -7.742 168.720001
-2.1896800000000001 26.792400000000001 114.456001
-3.4327200000000002 95.773803999999998 75.724402999999995
-10.558299999999999 -3.1113400000000002 42.503898999999997
1.8052809999999999 -8.3649159999999991 174.65477000000001
9.9974399999999992 17.257601000000001 145.804993
-10.208500000000001 98.307700999999994 45.881999999999998
20.8552 70.642196999999996 90.850502000000006
63.840000000000003 5.6515000000000004 141.087006
-19.2195 10.600300000000001 69.912903
-14.0306 5.3235400000000004 18.992000999999998
7.7957229999999997 1.4761960000000001 175.510986
15.601000000000001 101.03299699999999 55.970402
-4.6646599999999996 16.834499000000001 154.88099700000001
1.49474 119.73699999999999 63.052199999999999
-4.2111200000000002 -8.0652399999999993 176.449005
6.4471299999999996 5.8098700000000001 169.13600199999999
-4.9597100000000003 -8.2217800000000008 71.620102000000003
-1.8483099999999999 107.314003 103.852997
-9.1121300000000005 3.5507550000000001 177.53976399999999
12.601699999999999 -6.6330200000000001 74.436599999999999
-22.677098999999998 7.65266 82.9589
3.6137100000000002 -6.0538999999999996 175.24200400000001
-6.6543900000000002 -1.24779 182.23800700000001
-1.7654000000000001 76.270698999999993 120.82199900000001
-12.689399999999999 16.939399999999999 66.742103999999998
-10.7875 17.599501 68.377502000000007
5.5888099999999996 9.1692499999999999 63.535899999999998
-69.780463999999995 6.8802440000000002 143.94854699999999
23.8904 87.270302000000001 90.958602999999997
-13.568 100.285004 65.055199000000002
6.9104299999999999 2.7498300000000002 182.29800399999999
-9.3675200000000007 95.140197999999998 57.002997999999998
-6.9630599999999996 100.47199999999999 77.034698000000006
-3.9453299999999998 -1.6093900000000001 185.39999399999999
5.42788 11.4313 64.655097999999995
7.6614500000000003 -13.9191 110.290001
13.9475 88.589698999999996 2.51396
-12.5724 -9.8859499999999993 138.87300099999999
11.699299999999999 93.973999000000006 53.043900000000001
4.4320599999999999 91.417502999999996 73.054603999999998
17.222899999999999 86.650397999999996 58.3461
-7.72241 -14.3185 92.607596999999998
-10.001899999999999 100.329002 50.096499999999999
-79.920226999999997 4.2656869999999998 140.44586200000001
16.873932 101.152878 16.004854000000002
15.8033 15.468999999999999 103.491997
-0.032246999999999998 -5.0976929999999996 163.551086
-19.947865 -4.1814479999999996 146.00817900000001
-39.948101000000001 5.98353 141.662003
-8.23691 66.908896999999996 117.738998
2.5920200000000002 -15.0382 141.787994
10.001899999999999 100.329002 50.096499999999999
6.9177400000000002 -4.3803700000000001 156.541
-44.549636999999997 3.1954989999999999 150.96090699999999
-15.588699999999999 15.6685 67.266800000000003
-16.665800000000001 99.024101000000002 27.641000999999999
20.941859999999998 5.2877460000000003 143.669724
-3.90876 14.3649 128.93800400000001
-18.987801000000001 8.4352800000000006 62.436599999999999
-12.280773999999999 -12.569706 140.517349
1.7263900000000001 118.12400100000001 96.073898
2.7480799999999999 116.693001 67.606696999999997
45.567608 11.466934999999999 146.96066300000001
-12.140499999999999 102.524002 26.882601000000001
1.23139 66.767798999999997 71.937102999999993
-1.898614 -9.820551 168.84884600000001
-14.7887 102.82199900000001 56.579399000000002
43.611556999999998 2.7391390000000002 150.44078099999999
19.400700000000001 95.291702000000001 59.326199000000003
12.0579 5.8210300000000004 14.5913
14.708399999999999 9.9803099999999993 13.332800000000001
-13.801299999999999 -1.50979 44.589900999999998
-13.033200000000001 9.53904 10.482100000000001
1.8190500000000001 -13.0479 82.456199999999995
-35.882401000000002 1.0626199999999999 152.600998
1.6392469999999999 -9.7971160000000008 167.62356600000001
1.5605800000000001 -2.1913900000000002 161.253006
4.5135129999999997 111.948036 94.242621999999997
6.3447199999999997 14.606999999999999 1.6389199999999999
18.1919 67.607399000000001 81.999900999999994
60.087299000000002 10.8201 144.608002
78.820885000000004 -1.844716 142.42179899999999
-21.560300999999999 25.317101000000001 82.356200999999999
10.288212 7.0299719999999999 44.209946000000002
-21.711158999999999 6.588349 143.966476
44.35125 2.4651040000000002 143.868561
-12.9701 95.819396999999995 19.1675
56.694099000000001 10.394500000000001 141.554993
-20.1248 94.457901000000007 3.1191800000000001
-9.9868299999999994 99.430496000000005 6.0021300000000002
12.592506999999999 103.666252 16.725898999999998
21.024101000000002 -0.25648799999999999 146.868515
8.4466199999999994 -14.6092 123.90100099999999
16.758199999999999 99.035697999999996 44.723801000000002
-12.7553 3.4446099999999999 120.598
1.9775400000000001 108.769997 55.213698999999998
7.8418999999999999 13.444900000000001 58.768799000000001
84.546822000000006 -1.974305 141.338562
0.32664399999999999 3.414002 186.578217
12.131 7.1340199999999996 13.4246
5.6399970000000001 -12.971149 84.863952999999995
0.69982100000000003 110.095001 104.643997
-20.155100000000001 13.8279 152.97200000000001
-8.4514899999999997 5.0679100000000004 42.513199
2.11409 117.94000200000001 38.163100999999997
58.811298000000001 7.5046299999999997 140.61799600000001
9.0927900000000008 16.272200000000002 64.558295999999999
-1.7337 -15.7385 125.098
11.5021 100.593002 15.6509
69.811096000000006 0.75445600000000002 145.738831
19.231701000000001 17.9543 92.475303999999994
-33.014301000000003 10.341699999999999 152.770004
13.799590999999999 -7.5183340000000003 151.22905
-17.270499999999998 101.49099699999999 99.940002000000007
-19.613600000000002 3.8139400000000001 142.955994
4.7963300000000002 114.605003 84.519203000000005
-15.5382 101.601997 34.297600000000003
-10.1754 10.1952 21.067399999999999
5.0572400000000002 9.9237400000000004 175.820007
-16.257515000000001 12.363614 157.11189300000001
19.981501000000002 4.2194799999999999 143.546997
12.284700000000001 7.0192500000000004 34.961601000000002
-12.612399999999999 105.86199999999999 50.001998999999998
4.2476900000000004 116.46700300000001 52.176997999999998
11.4824 -0.47390399999999999 35.839297999999999
-6.1155099999999996 7.1485000000000003 64.472099
75.903121999999996 4.6930240000000003 144.396683
11.958399999999999 102.751999 78.322800000000001
8.5747099999999996 92.484900999999994 64.165397999999996
78.415306000000001 -0.15740799999999999 145.29420500000001
-18.575724000000001 -0.14860599999999999 157.74046300000001
-25.863824999999999 8.5287900000000008 157.86911000000001
-1.27772 91.040099999999995 118.827003
13.414019 10.363476 6.3857160000000004
-7.0145869999999997 14.215282 8.0342769999999994
-5.063974 -0.54702499999999998 163.11134300000001
-11.3917 100.704002 27.02
-16.781068999999999 2.6521400000000002 158.41635099999999
-18.6661 101.343002 94.651900999999995
-12.9186 -10.153 130.891998
19.697399000000001 17.635798999999999 82.317497000000003
-16.931498999999999 96.385300000000001 51.917400000000001
-78.973304999999996 -2.013843 144.90725699999999
15.654500000000001 -8.7591900000000003 147.425995
14.964499999999999 9.6443700000000003 17.0825
27.596518 4.572133 158.36404400000001
21.1416 12.2643 142.76100199999999
-7.8540900000000002 39.722599000000002 111.62799800000001
-3.9681280000000001 109.13764999999999 63.495640000000002
4.48909 15.7964 157.225998
11.1045 4.0841099999999999 20.817301
2.0068000000000001 109.362999 84.929298000000003
8.8326229999999999 2.5927570000000002 175.69970699999999
-14.406102000000001 103.965324 16.654084999999998
14.2622 75.985298 116.12400100000001
-11.441449 101.798996 16.471250999999999
-14.178100000000001 104.74700199999999 99.856796000000003
16.299199999999999 76.438102999999998 67.967299999999994
13.398999999999999 1.69642 124.283997
-61.228698999999999 2.0937399999999999 147.97799699999999
2.6700499999999998 111.08200100000001 44.960098000000002
82.009911000000002 -0.457538 141.69828799999999
-11.778600000000001 97.945098999999999 24.206399999999999
-21.553801 69.699698999999995 94.577202
11.670199999999999 -10.8042 81.986999999999995
44.299926999999997 1.4562630000000001 146.40031400000001
76.241332999999997 -2.1918980000000001 140.11045799999999
-0.91170600000000002 -9.9415809999999993 169.679337
-7.5041000000000002 -0.22737099999999999 173.17430100000001
-3.7575699999999999 7.5676800000000002 184.541
-20.155799999999999 -0.249615 86.859397999999999
6.8421500000000002 6.8625499999999997 53.718800000000002
-13.665706 -7.4256330000000004 151.44662500000001
18.046600000000002 -3.1595300000000002 142.32699600000001
9.4000299999999992 -0.85042799999999996 157.21499600000001
72.005843999999996 -2.1935709999999999 141.27799999999999
15.943 102.41100299999999 15.716100000000001
24.752431999999999 11.272332 147.098465
-56.709201999999998 10.5204 141.675003
-17.816465000000001 97.239586000000003 19.270779000000001
9.4292499999999997 97.006500000000003 7.8687699999999996
20.158300000000001 3.6297899999999998 91.423400999999998
-18.451719000000001 -2.7820710000000002 153.661957
11.2859 92.216498999999999 9.4552099999999992
8.0641169999999995 3.5032700000000001 174.26814300000001
8.8050599999999992 13.8432 12.177099999999999
20.085100000000001 -0.48727999999999999 80.035399999999996
-19.777901 18.370999999999999 89.051804000000004
61.503601000000003 5.8335100000000004 148.628006
5.6278300000000003 -0.46296599999999999 167.574997
2.680196 -13.277938000000001 146.272659
19.295099 0.77307800000000004 95.600403
-1.4703599999999999 87.477599999999995 119.605003
-21.455352999999999 0.97919999999999996 145.813492
11.0947 8.3153400000000008 12.0589
29.999639999999999 4.6040130000000001 156.98814400000001
-0.169018 -15.975906 119.498329
-79.519547000000003 3.497214 142.071381
3.8892500000000001 -3.7418 184.865005
10.143700000000001 8.7441999999999993 12.219200000000001
14.123200000000001 12.752800000000001 55.318297999999999
2.1896800000000001 -4.32721 157.884995
5.2309049999999999 -6.874193 175.156128
-4.5646800000000001 35.200001 113.279999
-29.769587000000001 7.7939930000000004 156.071854
-9.5985600000000009 98.846198999999999 49.596401
-16.086599 67.267403000000002 79.571297000000001
-5.2620699999999996 71.494202000000001 119.969002
21.397392 10.387725 158.83287000000001
-37.239100999999998 11.742699999999999 149.99099699999999
-72.001662999999994 6.718566 142.89480599999999
2.9992299999999998 117.885002 51.165900999999998
-31.869199999999999 -1.3965000000000001 146.33500699999999
25.169291999999999 10.189754000000001 156.99220299999999
-20.825583000000002 3.3490489999999999 144.78135700000001
-13.886699999999999 -6.5395300000000001 126.393997
-48.223717000000001 6.9069950000000002 151.43859900000001
0.59984700000000002 85.980400000000003 74.731102000000007
-15.802676 97.300765999999996 31.289413
64.682709000000003 6.472003 147.23558
-81.778389000000004 2.263493 142.98367300000001
-12.0238 61.573600999999996 71.664299
-0.24384 106.011002 115.66300200000001
4.0453099999999997 117.209 42.967700999999998
32.067298999999998 -2.0358999999999998 149.69399999999999
-25.022141999999999 -0.54234499999999997 148.99719200000001
9.3341899999999995 -2.48665 156.104004
-14.7913 8.6628600000000002 18.972999999999999
81.478401000000005 -2.626595 144.013565
14.1281 4.9118199999999996 27.538699999999999
-19.969100999999998 65.881500000000003 101.870003
-17.6248 2.8006500000000001 60.444000000000003
-40.516601999999999 7.9100200000000003 151.76499899999999
9.3951499999999992 3.9634800000000001 30.773299999999999
6.1046420000000001 -6.5958079999999999 176.37013200000001
-0.75671200000000005 -15.852105999999999 125.71626999999999
-2.54569 11.3843 176.15100100000001
11.206899999999999 18.488600000000002 5.8472900000000001
15.313369 103.343338 23.735710000000001
-4.9256900000000003 -16.415324999999999 111.773247
-11.1534 91.399696000000006 7.48306
-8.0556929999999998 3.4965959999999998 174.295151
18.528500000000001 87.662300000000002 58.918900000000001
-11.408659 17.266393999999998 10.967987000000001
13.094200000000001 15.9008 150.68699599999999
1.2021299999999999 114.429001 108.069
-13.147009000000001 -12.650884 140.62764000000001
-22.006056000000001 8.3670340000000003 142.622726
-17.172899000000001 97.597999999999999 47.158999999999999
-8.0686699999999991 19.663799000000001 112.905998
-12.2018 13.359299999999999 16.148499999999999
-13.8672 5.4451099999999997 40.532200000000003
7.1810900000000002 -2.9971100000000002 169.44000199999999
-43.138801999999998 6.95113 152.07200599999999
69.980461000000005 3.0855109999999999 146.28230300000001
19.989100000000001 65.744904000000005 89.299698000000006
-1.60934 42.172198999999999 114.677002
-15.745799999999999 70.267700000000005 78.255600000000001
-11.3727 -11.0748 117.781998
6.7348600000000003 -15.3064 123.35700199999999
-3.5625 108.820999 63.675097999999998
0.41209000000000001 107.75 58.600299999999997
2.5109409999999999 117.17671199999999 77.516341999999995
13.3673 25.791201000000001 68.394203000000005
-1.364587 -7.0269830000000004 163.64913899999999
2.0748160000000002 108.371689 62.670085999999998
5.1669700000000001 52.536900000000003 114.86799600000001
1.3338000000000001 115.906998 105.431999
69.355323999999996 0.115498 142.64595
15.0379 96.652000000000001 24.551399
11.989599999999999 -9.5197400000000005 117.900002
-0.46928700000000001 -10.854266000000001 171.02595500000001
20.4512 -0.95548200000000005 146.30900600000001
-10.4315 20.986601 110.334
-16.390899999999998 79.367203000000003 64.363997999999995
8.6740919999999999 2.0943679999999998 176.97112999999999
-26.244005000000001 4.4965710000000003 158.835297
5.8594799999999996 16.924600999999999 114.71199799999999
21.062671999999999 5.6547080000000003 142.539185
-16.816299000000001 100.012001 27.425301000000001
-8.8376049999999999 2.4794740000000002 175.536575
-7.0558930000000002 3.6443219999999998 168.77560399999999
-34.347000000000001 2.46469 144.91799900000001
17.065200999999998 99.307297000000005 25.370000999999998
-4.7231800000000002 116.07399700000001 47.519001000000003
7.7150999999999996 108.593002 93.474997999999999
1.5190520000000001 -10.029123 171.432053
-50.368172000000001 9.0649960000000007 149.89799500000001
0 -15.533099999999999 95.421599999999998
41.350707999999997 0.0030460000000000001 149.92247
-2.2628400000000002 -5.0151500000000002 184.83599899999999
10.817 99.214500000000001 17.202000000000002
-13.495186 3.4901249999999999 28.519736999999999
-3.3479199999999998 116.74900100000001 102.71700300000001
2.4310800000000001 107.621002 99.354102999999995
-81.122200000000007 -2.7638470000000002 142.27595500000001
-73.371673999999999 -3.0099819999999999 140.31838999999999
5.5422209999999996 -7.8944000000000001 177.712311
73.196776999999997 -0.74721400000000004 144.92643699999999
47.493099000000001 5.1857199999999999 151.962006
17.3596 98.872803000000005 45.871799000000003
7.9979500000000003 2.1495799999999998 38.001099000000004
5.6532479999999996 -7.419092 171.31741299999999
-12.5946 103.960999 17.5366
22.16995 10.722035999999999 145.56613200000001
-3.5356800000000002 117.212997 39.345402
-14.2852 95.693702999999999 109.898003
-16.516182000000001 3.5256099999999999 158.73722799999999
-72.868797000000001 2.0010300000000001 146.00100699999999
10.389616 -12.78087 123.283905
-83.172127000000003 2.622074 139.65081799999999
-0.53400999999999998 108.314003 107.894997
-10.5875 -3.0083799999999998 44.986300999999997
15.199693999999999 -5.532419 132.658005
14.294600000000001 70.917702000000006 77.320396000000002
47.036701000000001 1.4677 146.195007
18.478200999999999 6.0676699999999997 63.603198999999996
20.170400999999998 19.823 85.569503999999995
36.812401000000001 4.7784500000000003 142.942993
-79.434471000000002 -0.074823000000000001 142.884308
17.091100999999998 98.285399999999996 24.419701
-11.026300000000001 99.899101000000002 23.739799000000001
-41.494301 7.74064 141.671997
-78.389008000000004 -0.47982999999999998 145.47112999999999
-8.5354460000000003 -13.976599 127.18420399999999
-58.048999999999999 3.5070000000000001 141.40600599999999
-0.85100200000000004 -1.46957 186.334
0.38277899999999998 -9.6824639999999995 175.22593699999999
17.066400999999999 16.6325 143.73699999999999
11.3751 0.42913600000000002 63.488399999999999
-2.0701999999999998 94.942802 75.952904000000004
57.314602000000001 7.3826400000000003 149.53199799999999
-5.5888099999999996 9.1692499999999999 63.535899999999998
-14.5646 11.1942 13.900399999999999
-13.311199999999999 16.843399000000002 11.321
8.9050399999999996 12.222899999999999 1.8712899999999999
4.8719200000000003 18.1068 138.29299900000001
-13.190300000000001 95.586196999999999 15.0685
-8.9081480000000006 3.0714640000000002 177.10690299999999
11.555999999999999 99.540497000000002 13.713100000000001
10.9923 10.4552 24.424800999999999
-2.4701 -10.095800000000001 152.09300200000001
-14.360900000000001 74.328400000000002 71.430098999999998
13.197706999999999 -12.591984 140.73170500000001
-1.2989569999999999 -10.097517 171.467972
83.252762000000004 1.894228 139.79837000000001
3.9648400000000001 -16.086300000000001 120.860001
10.6729 3.286 26.766199
7.5785499999999999 0.73728499999999997 159.009995
-70.813354000000004 4.9866429999999999 145.976868
-9.8781700000000008 99.870697000000007 51.825400999999999
0.31745099999999998 -9.3659320000000008 168.261032
-4.83779 -6.2584600000000004 181.962006
18.27 99.9739 20.6938
13.9793 -6.9462900000000003 128.92799400000001
11.778600000000001 97.945098999999999 24.206399999999999
12.092000000000001 8.2572500000000009 12.1075
-16.404221 14.200302000000001 152.14892599999999
55.837600999999999 1.5077700000000001 148.43400600000001
28.4678 11.5367 147.45100400000001
-0.875386 116.567001 39.389301000000003
-19.114598999999998 25.029599999999999 74.429603999999998
0.17777399999999999 -9.293571 164.07959
-8.7319099999999992 -1.3674299999999999 42.193100000000001
11.3751 17.075099999999999 141.591003
8.9806299999999997 17.058800000000002 138.05200199999999
56.923698000000002 10.851100000000001 146.496002
-0.61291499999999999 -9.6970299999999998 168.31559799999999
-82.059539999999998 -3.28721 142.08169599999999
-10.0023 13.9232 14.6693
4.0989500000000003 116.139999 56.507300999999998
3.8294959999999998 -6.2661889999999998 164.47679099999999
3.9282599999999999 0.68784400000000001 185.71000699999999
2.2482000000000002 105.74400300000001 111.209999
26.966100999999998 -0.51556599999999997 148.11999499999999
5.1257010000000003 -5.8722789999999998 175.53422499999999
14.084199999999999 3.9557799999999999 30.896999000000001
-21.740801000000001 25.6723 86.398003000000003
19.142166 97.936347999999995 3.289663
-8.0109069999999996 1.875073 176.90548699999999
-16.568898999999998 0.43346299999999999 72.427597000000006
-4.49397 111.827003 46.770499999999998
40.118999000000002 9.0681499999999993 151.74800099999999
9.1150490000000008 5.2406009999999998 176.22151199999999
14.905900000000001 49.551399000000004 107.569
10.694426999999999 99.294730999999999 2.9525589999999999
-23.343399000000002 91.594299000000007 85.528000000000006
-2.6018300000000001 -5.8467120000000001 163.833923
-38.702209000000003 6.1835560000000003 152.28660600000001
5.5668699999999998 21.037901000000002 114
-4.8036500000000002 116.216003 96.023696999999999
-14.766999999999999 6.5737899999999998 107.56300400000001
-2.8431700000000002 117.975998 99.619003000000006
75.029685999999998 -1.2885679999999999 140.07676699999999
16.648099999999999 99.818100000000001 30.714300000000001
-24.027999999999999 49.370899000000001 84.296897999999999
-18.7684 12.007899999999999 135.48199500000001
2.8358599999999998 117.351997 84.325500000000005
15.188800000000001 7.2732700000000001 160.65400700000001
14.2866 0.116981 51.606299999999997
-8.2978699999999996 12.249000000000001 11.4619
8.3762220000000003 2.4421629999999999 171.783905
-17.921399999999998 67.498397999999995 111.11199999999999
-5.1302570000000003 -0.46341199999999999 165.797043
8.7803869999999993 2.9700510000000002 172.83660900000001
22.296700000000001 32.803500999999997 90.554801999999995
-16.127500999999999 9.4773999999999994 160.83999600000001
-17.614999999999998 93.693297999999999 11.558999999999999
84.071372999999994 -2.9441830000000002 142.25857500000001
-1.5971500000000001 14.0068 154.81100499999999
8.646547 -13.374912999999999 121.31212600000001
48.300277999999999 6.8797059999999997 151.31823700000001
-9.6194900000000008 -1.9718800000000001 39.129002
-84.195732000000007 -1.705187 142.18124399999999
-16.378699999999998 -3.0772499999999998 133.10699500000001
-75.216576000000003 6.4373040000000001 143.10685699999999
-20.9727 60.462600999999999 92.400101000000006
2.1726200000000002 16.180599000000001 151.01300000000001
-2.2433299999999998 110.44000200000001 112.714996
7.95486 78.207999999999998 73.291397000000003
9.2310560000000006 10.525774999999999 6.3870930000000001
-82.290298000000007 -0.76700199999999996 142.237503
16.375999 96.030602000000002 19.098400000000002
-27.862300999999999 2.3760599999999998 145.04499799999999
19.877800000000001 17.248100000000001 82.399696000000006
-2.67245 -7.8424990000000001 168.288757
-24.092328999999999 11.961123000000001 155.438614
9.5682799999999997 90.242699000000002 116.584
20.299700000000001 4.25854 140.473007
23.041105000000002 8.1084340000000008 159.456467
-70.737601999999995 -1.1571 143.307007
53.965598999999997 5.9946400000000004 150.67100500000001
22.199498999999999 72.829300000000003 104.262001
23.814899 87.251801 81.760200999999995
-10.816700000000001 17.761800999999998 70.797996999999995
-8.5075800000000008 10.755000000000001 15.017200000000001
83.253899000000004 1.288996 139.48088100000001
-18.549759000000002 8.8514909999999993 159.47936999999999
-79.706207000000006 -0.74431700000000001 144.39591999999999
44.832698999999998 5.0454999999999997 141.537994
-12.4681 95.917000000000002 14.810600000000001
-4.8475400000000004 9.1330200000000001 172.36000100000001
-1.40696 117.906998 102.754997
3.8892500000000001 -4.7351700000000001 184.358994
-20.221900999999999 67.127502000000007 89.704597000000007
-14.5426 -9.7607499999999998 95.996498000000003
1.07046 113.056999 111.241997
14.468142 103.99587200000001 16.694489000000001
-21.79335 -2.090014 147.24037200000001
10.960000000000001 102.15300000000001 48.803001000000002
-8.6785599999999992 90.830596999999997 61.105300999999997
6.2179200000000003 -13.123900000000001 86.942397999999997
-1.2484599999999999 119.851997 84.000504000000006
-31.517799 11.3468 151.19700599999999
17.2395 -6.51593 150.06899999999999
15.457000000000001 3.5578099999999999 43.988998000000002
-3.1696499999999999 92.183700999999999 74.069000000000003
-1.5897300000000001 -8.7995099999999997 168.00824
-20.180201 7.1779999999999999 135.14700300000001
-8.6611999999999991 1.01261 56.289501000000001
12.612399999999999 105.86199999999999 50.001998999999998
79.622169 -2.2348750000000002 142.127655
-70.209816000000004 1.9718389999999999 146.19399999999999
15.8277 11.2639 104.837997
-1.095793 112.487976 110.655502
3.1723599999999998 11.847899999999999 163.22700499999999
64.467453000000006 2.835566 141.897369
-3.4705759999999999 -7.2882999999999996 175.130112
-0.064595 -4.1768330000000002 156.71745300000001
5.5254099999999999 18.456699 141.95100400000001
-24.498578999999999 -1.31134 150.984207
-7.6858399999999998 0.94329799999999997 43.731701000000001
-13.8599 103.727997 26.812798999999998
31.091742 7.2887339999999998 154.719559
-2.9992299999999998 117.885002 51.165900999999998
-0.63642299999999996 15.242599999999999 134.79800399999999
-19.463498999999999 71.774597 82.312599000000006
7.2396099999999999 -4.4292999999999996 172.776993
-78.523880000000005 2.8750629999999999 141.803833
3.438904 108.48313899999999 63.626865000000002
-0.072706000000000007 -9.2055299999999995 177.53312700000001
-22.160101000000001 10.1927 144.830994
-13.537964000000001 104.191399 18.907399999999999
60.570900000000002 1.1130199999999999 143.24499499999999
-74.548500000000004 4.7592699999999999 140.78500399999999
-5.3791099999999998 7.2152700000000003 169.32699600000001
-14.766500000000001 103.297997 34.235298
3.7697699999999998 10.8873 176.128006
19.131945000000002 6.064038 71.505752999999999
10.692399999999999 -10.937799999999999 111.523003
-13.8794 10.114699999999999 10.7768
17.3645 99.242203000000003 58.184199999999997
-2.37012 10.712999999999999 66.516602000000006
-61.357201000000003 4.8581799999999999 141.13900799999999
-5.1572199999999997 110.19899700000001 63.242100000000001
-10.4534 10.752800000000001 4.4236500000000003
6.1862199999999996 16.730801 3.9763199999999999
-4.2671999999999999 17.278199999999998 134.38699299999999
57.136200000000002 11.450200000000001 143.12300099999999
16.678128999999998 13.739723 152.86016799999999
14.342700000000001 10.4556 8.9399499999999996
-18.185600000000001 -0.078911999999999996 140.37399300000001
-17.2516 96.537903 21.211200999999999
-14.442600000000001 -8.0440400000000007 140.14999399999999
15.8764 5.76546 159.395996
14.565300000000001 104.827003 47.618099000000001
69.385802999999996 5.2457099999999999 142.13699299999999
-19.551100000000002 8.2234599999999993 72.077599000000006
79.704109000000003 1.3714900000000001 144.655655
-3.6917399999999998 10.6731 174.104996
83.513526999999996 -0.51956599999999997 142.20240799999999
-19.894898999999999 9.7788000000000004 135.03500399999999
9.8544470000000004 94.077492000000007 8.1907359999999994
-83.392409999999998 -0.82960299999999998 138.78646900000001
19.172080999999999 3.3123879999999999 143.58532700000001
84.573607999999993 -1.0054639999999999 139.03132600000001
71.825073000000003 5.3529499999999999 145.20919799999999
-19.704699999999999 10.559699999999999 72.958602999999997
-13.226029 15.203260999999999 155.201874
84.376793000000006 0.122 137.994202
7.4520090000000003 4.0807130000000003 173.05624399999999
-1.476472 -9.1820629999999994 167.10174599999999
17.587 99.109802000000002 51.448501999999998
18.978100000000001 3.2175699999999998 137.36300700000001
-11.670199999999999 -10.8042 81.986999999999995
15.152825 96.714652999999998 38.246547999999997
-4.6939200000000003 112.889 95.934196
-21.588301000000001 84.498199 104.833
15.274100000000001 13.527100000000001 132.52200300000001
15.5382 101.601997 34.297600000000003
18.819599 17.763500000000001 79.900802999999996
-15.701551 102.739746 24.421773999999999
53.605801 11.333299999999999 146.60699500000001
3.7372749999999999 111.040077 94.116066000000004
-23.707492999999999 7.061172 143.76470900000001
-15.2498 6.9844200000000001 17.171800999999999
-17.332100000000001 2.1187100000000001 67.145599000000004
13.933 3.9554999999999998 109.66100299999999
0.21912100000000001 119.572884 35.729636999999997
-7.176113 3.055552 170.165909
-0.543763 113.473 40.628799000000001
-14.542408999999999 103.59371899999999 27.166391000000001
-2.296017 100.238083 116.05933400000001
13.414581999999999 104.143196 55.701466000000003
-24.972584000000001 0.42396299999999998 148.266617
0.80467200000000005 110.355003 98.584701999999993
-4.4647100000000002 116.450996 43.263598999999999
19.281690999999999 96.247116000000005 8.4176959999999994
-9.2956710000000005 3.9225859999999999 177.158829
1.7239500000000001 53.084999000000003 115.86199999999999
8.4110680000000002 3.0678990000000002 172.920242
82.041267000000005 0.015651000000000002 141.61312899999999
-12.458549 -12.567921 139.36863700000001
42.356498999999999 1.9909699999999999 144.229996
7.9963290000000002 1.791112 175.078552
10.4315 20.986601 110.334
11.44 99.113799999999998 68.190299999999993
24.204584000000001 9.3016199999999998 144.24061599999999
-10.192500000000001 102.62400100000001 77.753197
10.161785999999999 17.538838999999999 10.347690999999999
8.5977999999999994 70.103301999999999 118.55100299999999
-3.2954599999999998 -7.8335679999999996 174.714508
-11.35394 102.79733299999999 19.240725000000001
11.304399999999999 94.968497999999997 113.433998
-2.8358599999999998 5.1032000000000002 67.596298000000004
18.6724 90.445198000000005 2.5148000000000001
-22.472550999999999 7.3489649999999997 143.851868
14.747698 103.61557000000001 23.653534000000001
-9.5704899999999995 97.872703999999999 49.188599000000004
-16.744499000000001 61.377499 77.813202000000004
-7.5102700000000002 13.7818 0.41775299999999999
-1.69713 115.772003 105.37200199999999
-22.929815000000001 3.1181570000000001 159.63810699999999
-9.2080199999999994 10.533493 6.3980569999999997
-82.250420000000005 0.65619300000000003 141.46391299999999
18.811181999999999 93.708336000000003 9.0025250000000003
3.2894000000000001 117.20700100000001 78.959098999999995
-58.835898999999998 7.6384400000000001 140.733994
6.9616300000000004 4.5002800000000001 181.90400700000001
31.317599999999999 10.745900000000001 143.621002
11.648400000000001 102.469002 56.485100000000003
22.547899000000001 55.384399000000002 90.890197999999998
-5.2430649999999996 -6.7267989999999998 175.958969
