-10.0413 9.6347799999999992 10.3817
-3.1869900000000002 105.60700199999999 108.697998
-1.8288 106.273003 108.23699999999999
-9.5404499999999999 100.508003 110.31199599999999
-8.2978699999999996 12.249000000000001 11.4619
-6.9591900000000004 100.568001 112.917
-8.3710299999999993 11.062200000000001 10.956099999999999
-8.7367899999999992 97.768501000000001 113.67600299999999
-2.9797199999999999 102.639999 113.918999
-9.5195100000000004 14.7508 12.615500000000001
-7.9882 95.688796999999994 115.230003
-8.8050599999999992 13.8432 12.177099999999999
-10.1218 13.406000000000001 16.106300000000001
-10.143700000000001 8.7441999999999993 12.219200000000001
-13.279500000000001 93.214698999999996 112.920998
-14.2852 95.693702999999999 109.898003
-11.8977 98.418899999999994 110.112999
-11.304399999999999 94.968497999999997 113.433998
-15.8161 99.184898000000004 105.085999
-14.178100000000001 104.74700199999999 99.856796000000003
-13.0722 102.07199900000001 105.165001
-18.706800000000001 95.327797000000004 104.833
-20.740601000000002 90.420197000000002 104.706001
-22.363700999999999 92.112899999999996 99.878304
-20.170601000000001 97.247596999999999 99.893799000000001
-16.044701 86.492500000000007 113.358002
-18.273800000000001 87.996002000000004 109.77600099999999
-16.658300000000001 92.364699999999999 109.641998
-15.4229 90.206199999999995 112.68499799999999
-9.5682799999999997 90.242699000000002 116.584
-11.036199999999999 85.870697000000007 117.137001
-13.850099999999999 85.802398999999994 115.432999
-13.4039 89.269797999999994 114.74299600000001
-9.2903000000000002 9.3848500000000001 12.499499999999999
-3.83317 91.054703000000003 118.454002
-4.4110699999999996 87.219100999999995 119.290001
-7.6004899999999997 86.682700999999994 118.469002
-6.5983099999999997 90.788901999999993 117.70500199999999
-8.3490800000000007 78.231200999999999 119.537003
-8.0028299999999994 82.478897000000003 119.31199599999999
-4.82559 83.178702999999999 120.105003
-5.1206399999999999 79.216301000000001 120.474998
-8.5977999999999994 70.103301999999999 118.55100299999999
-8.6368200000000002 73.905097999999995 119.148003
-5.2986399999999998 75.262398000000005 120.403999
-5.2620699999999996 71.494202000000001 119.969002
-14.2622 75.985298 116.12400100000001
-13.989100000000001 80.953002999999995 116.307999
-11.1435 81.457297999999994 117.998001
-11.389799999999999 76.875397000000007 117.969002
-14.8352 71.025702999999993 115.067001
-11.7799 72.244904000000005 117.050003
-11.7653 68.547698999999994 116.25
-19.513999999999999 76.403701999999996 110.23200199999999
-18.922999999999998 82.169701000000003 110.38099699999999
-16.547001000000002 81.074202999999997 114.223
-16.959101 75.702301000000006 114.01300000000001
-19.516999999999999 67.174499999999995 107.75700399999999
-20.4053 70.852798000000007 109.014
-17.571100000000001 70.943603999999993 112.487999
-17.921399999999998 67.498397999999995 111.11199999999999
-23.182898999999999 74.894797999999994 99.724197000000004
-22.199498999999999 72.829300000000003 104.262001
-21.254899999999999 69.004501000000005 103.287003
-22.323098999999999 70.973800999999995 99.065299999999993
-21.588301000000001 84.498199 104.833
-21.943000999999999 78.216697999999994 104.768997
-23.266999999999999 79.879799000000006 99.859099999999998
-23.3916 86.164901999999998 99.906197000000006
-8.5661000000000005 11.4366 13.505100000000001
-0.68613800000000003 61.196013999999998 68.312584000000001
-8.5075800000000008 10.755000000000001 15.017200000000001
-15.0059 9.1135300000000008 17.709499000000001
-0.33893800000000002 103.71700300000001 88.749495999999994
-15.2498 6.9844200000000001 17.171800999999999
-12.154301999999999 13.492558000000001 18.136652000000002
-1.7654000000000001 76.270698999999993 120.82199900000001
-1.750237 72.625168000000002 120.504707
-1.4703599999999999 87.477599999999995 119.605003
-1.27772 91.040099999999995 118.827003
-0.59984700000000002 85.980400000000003 74.731102000000007
-0.58765400000000001 89.384399000000002 74.740898000000001
-0.61447700000000005 91.181503000000006 75.408996999999999
-0.64861400000000002 93.098099000000005 76.296599999999998
-1.6361699999999999 65.060203999999999 118.89299800000001
-1.6825319999999999 68.991530999999995 119.815369
-13.5185 11.827400000000001 18.316700000000001
-0.94609900000000002 96.569396999999995 78.144203000000005
-14.1061 5.5883599999999998 17.0473
-1.64836 60.842700999999998 117.728996
-14.2012 6.3120799999999999 15.8912
-18.1919 67.607399000000001 81.999900999999994
-16.086599 67.267403000000002 79.571297000000001
-11.931100000000001 4.2515200000000002 16.913601
-16.744499000000001 61.377499 77.813202000000004
-21.3169 68.650397999999996 94.387801999999994
-21.553801 69.699698999999995 94.577202
-21.256900999999999 68.873703000000006 98.320198000000005
-20.914498999999999 67.460999000000001 97.902100000000004
-20.459299000000001 69.726996999999997 90.581901999999999
-20.379498999999999 67.070801000000003 102.36900300000001
-12.0579 5.8210300000000004 14.5913
-18.650801000000001 65.810599999999994 106.896004
-11.075200000000001 5.7835900000000002 14.482200000000001
-17.365400000000001 66.105002999999996 110.110001
-16.890799999999999 64.812697999999997 109.80300099999999
-14.4573 67.576897000000002 113.81500200000001
-17.270499999999998 101.49099699999999 99.940002000000007
-9.1708200000000009 6.1339100000000002 15.606400000000001
-19.346299999999999 61.960200999999998 100.50700399999999
-8.0345300000000002 7.1055799999999998 16.860700999999999
-8.8855299999999993 11.816800000000001 18.1616
-19.780100000000001 64.622497999999993 89.105202000000006
-9.8828399999999998 13.2989 18.575399000000001
-8.9391700000000007 12.093500000000001 17.624001
8.7335379999999994 17.133312 11.160099000000001
10.677225 17.020119000000001 11.185271
-19.245543999999999 69.687591999999995 86.132767000000001
13.341241999999999 17.025358000000001 11.270894999999999
16.038157000000002 14.098693000000001 8.8117959999999993
14.765135000000001 11.110056999999999 6.8464369999999999
11.945876 10.010503999999999 6.2211090000000002
-20.3062 68.417702000000006 90.162398999999994
1.648984 60.816940000000002 117.721954
1.6553230000000001 65.071510000000004 118.892883
0.58765400000000001 89.384399000000002 74.740898000000001
0 85.980400000000003 74.731102000000007
0 106.76799800000001 103.148003
0 103.583 88.810401999999996
0.32403199999999999 106.466301 107.107117
0.37679699999999999 102.136864 115.849586
1.27772 91.040099999999995 118.827003
0 75.887900999999999 75.179801999999995
0 105.79499800000001 94.808898999999997
0.64861400000000002 93.098099000000005 76.296599999999998
0 80.969498000000002 75.377296000000001
0 70.735496999999995 73.758201999999997
0.80954800000000005 97.091797 117.319
4.6841699999999999 104.36799600000001 109.230003
4.3671699999999998 102.99099699999999 111.86799600000001
5.5668699999999998 101.858002 112.361
6.1593999999999998 103.231003 109.682999
8.1136189999999999 11.246418999999999 6.7697750000000001
7.1710739999999999 12.279938 7.3742799999999997
14.5646 11.1942 13.900399999999999
2.5898080000000001 100.77771799999999 115.720955
4.15991 99.911002999999994 115.150002
3.6424560000000001 97.945419000000001 116.43600499999999
14.5914 10.5686 15.3775
13.1088 8.6223700000000001 12.341799999999999
12.2018 13.359299999999999 16.148499999999999
2.4310800000000001 107.621002 99.354102999999995
12.357799999999999 13.865500000000001 14.709899999999999
14.528 14.777900000000001 11.319900000000001
15.469200000000001 12.9156 10.2964
2.6724899999999998 106.387001 87.9636
15.3863 11.4633 9.4984099999999998
2.3335499999999998 97.721396999999996 77.818297999999999
1.7288300000000001 100.758003 81.491202999999999
3.2869600000000001 102.352997 81.113403000000005
1.23139 66.767798999999997 71.937102999999993
14.706 10.9261 11.228199999999999
3.2382 66.862999000000002 72.034401000000003
20.480101000000001 60.058200999999997 96.217796000000007
19.741301 59.759498999999998 99.827399999999997
10.0413 9.6347799999999992 10.3817
4.9962799999999996 94.797698999999994 117.023003
1.0314399999999999 94.348999000000006 118.043999
8.2978699999999996 12.249000000000001 11.4619
1.70688 79.925903000000005 120.779999
1.60934 83.659103000000002 120.375
3.0016699999999998 107.414001 104.03299699999999
8.3710299999999993 11.062200000000001 10.956099999999999
5.2108600000000003 107.977997 99.360703000000001
9.5195100000000004 14.7508 12.615500000000001
5.7326800000000002 108.281998 93.815597999999994
4.41838 107.084999 87.718299999999999
3.9672800000000001 107.94699900000001 94.112198000000006
8.0881699999999999 63.415000999999997 116.745003
8.23691 66.908896999999996 117.738998
5.01091 67.996200999999999 119.15799699999999
4.9060600000000001 64.308898999999997 118.195999
13.9915 62.091202000000003 111.92800099999999
14.0671 64.992103999999998 113
11.3459 65.820999 115.557999
11.1874 62.476799 114.545998
16.585999999999999 62.284100000000002 108.658997
18.253900999999999 62.4011 104.978996
20.5641 63.874901000000001 97.008301000000003
19.859231999999999 63.708519000000003 101.22110000000001
8.5368399999999998 61.472499999999997 70.008201999999997
5.2547499999999996 61.359299 69.027495999999999
14.984 61.460299999999997 74.958198999999993
12.0238 61.573600999999996 71.664299
19.812000000000001 61.160499999999999 83.191497999999996
18.3368 61.455199999999998 78.706001000000001
20.9727 60.462600999999999 92.400101000000006
20.697099999999999 60.751499000000003 88.185897999999995
16.878599000000001 58.777698999999998 106.724998
18.722000000000001 59.381599000000001 103.26300000000001
11.292199999999999 58.619900000000001 113.195999
14.1988 58.278801000000001 110.241997
4.9450799999999999 60.446700999999997 117.06999999999999
8.1613199999999999 59.658698999999999 115.560997
7.8467700000000002 67.212303000000006 73.188796999999994
8.8050599999999992 13.8432 12.177099999999999
11.325900000000001 67.465401 74.579498000000001
13.735799999999999 67.417603 76.931197999999995
17.799600999999999 67.504302999999993 81.096298000000004
18.742398999999999 67.561897000000002 85.386596999999995
20.221900999999999 67.127502000000007 89.704597000000007
20.821400000000001 64.815101999999996 93.253197
8.9849899999999998 105.396004 104.817001
10.630100000000001 104.00599699999999 105.08200100000001
11.8957 106.379997 99.633598000000006
10.1218 13.406000000000001 16.106300000000001
10.143700000000001 8.7441999999999993 12.219200000000001
9.2903000000000002 9.3848500000000001 12.499499999999999
8.5148899999999994 107.799004 99.099502999999999
8.5661000000000005 11.4366 13.505100000000001
8.5075800000000008 10.755000000000001 15.017200000000001
3.1869900000000002 105.60700199999999 108.697998
1.8288 106.273003 108.23699999999999
9.5404499999999999 100.508003 110.31199599999999
15.0059 9.1135300000000008 17.709499000000001
6.9591900000000004 100.568001 112.917
15.2498 6.9844200000000001 17.171800999999999
8.7367899999999992 97.768501000000001 113.67600299999999
2.9797199999999999 102.639999 113.918999
12.111677999999999 13.5129 18.090862000000001
13.5185 11.827400000000001 18.316700000000001
7.9882 95.688796999999994 115.230003
14.1061 5.5883599999999998 17.0473
14.222319000000001 6.3551279999999997 15.862086
11.931100000000001 4.2515200000000002 16.913601
13.279500000000001 93.214698999999996 112.920998
14.2852 95.693702999999999 109.898003
11.8977 98.418899999999994 110.112999
11.304399999999999 94.968497999999997 113.433998
15.8161 99.184898000000004 105.085999
14.178100000000001 104.74700199999999 99.856796000000003
13.0722 102.07199900000001 105.165001
18.706800000000001 95.327797000000004 104.833
20.740601000000002 90.420197000000002 104.706001
22.363700999999999 92.112899999999996 99.878304
20.170601000000001 97.247596999999999 99.893799000000001
16.044701 86.492500000000007 113.358002
18.273800000000001 87.996002000000004 109.77600099999999
16.658300000000001 92.364699999999999 109.641998
15.4229 90.206199999999995 112.68499799999999
9.5682799999999997 90.242699000000002 116.584
11.036199999999999 85.870697000000007 117.137001
13.850099999999999 85.802398999999994 115.432999
13.4039 89.269797999999994 114.74299600000001
12.0579 5.8210300000000004 14.5913
3.83317 91.054703000000003 118.454002
4.4110699999999996 87.219100999999995 119.290001
7.6004899999999997 86.682700999999994 118.469002
6.5983099999999997 90.788901999999993 117.70500199999999
8.3490800000000007 78.231200999999999 119.537003
8.0028299999999994 82.478897000000003 119.31199599999999
4.82559 83.178702999999999 120.105003
5.1206399999999999 79.216301000000001 120.474998
8.5977999999999994 70.103301999999999 118.55100299999999
8.6368200000000002 73.905097999999995 119.148003
5.2986399999999998 75.262398000000005 120.403999
5.2620699999999996 71.494202000000001 119.969002
14.2622 75.985298 116.12400100000001
13.989100000000001 80.953002999999995 116.307999
11.1435 81.457297999999994 117.998001
11.389799999999999 76.875397000000007 117.969002
14.8352 71.025702999999993 115.067001
11.7799 72.244904000000005 117.050003
11.7653 68.547698999999994 116.25
19.513999999999999 76.403701999999996 110.23200199999999
18.922999999999998 82.169701000000003 110.38099699999999
16.547001000000002 81.074202999999997 114.223
16.959101 75.702301000000006 114.01300000000001
19.516999999999999 67.174499999999995 107.75700399999999
20.4053 70.852798000000007 109.014
17.571100000000001 70.943603999999993 112.487999
17.921399999999998 67.498397999999995 111.11199999999999
23.182898999999999 74.894797999999994 99.724197000000004
22.199498999999999 72.829300000000003 104.262001
21.254899999999999 69.004501000000005 103.287003
22.323098999999999 70.973800999999995 99.065299999999993
21.588301000000001 84.498199 104.833
21.943000999999999 78.216697999999994 104.768997
23.266999999999999 79.879799000000006 99.859099999999998
23.3916 86.164901999999998 99.906197000000006
0.68518999999999997 61.211497999999999 68.319800999999998
11.075200000000001 5.7835900000000002 14.482200000000001
9.1708200000000009 6.1339100000000002 15.606400000000001
8.0345300000000002 7.1055799999999998 16.860700999999999
8.8855299999999993 11.816800000000001 18.1616
9.8828399999999998 13.2989 18.575399000000001
1.7654000000000001 76.270698999999993 120.82199900000001
1.7532099999999999 72.6297 120.504997
1.4703599999999999 87.477599999999995 119.605003
8.9735949999999995 12.128315000000001 17.642641000000001
0.61447700000000005 91.181503000000006 75.408996999999999
1.6702999999999999 68.992203000000003 119.817001
0.41940499999999997 107.648003 62.461799999999997
0.94609900000000002 96.569503999999995 78.144203000000005
0.46085799999999999 107.694 67.441399000000004
0.50231000000000003 119.781998 55.582901
0 98.996596999999994 82.043899999999994
0.48280299999999998 119.81999999999999 60.216498999999999
0.39745900000000001 108.08000199999999 54.380401999999997
18.1919 67.607399000000001 81.999900999999994
16.086599 67.267403000000002 79.571297000000001
2.1970000000000001 118.91799899999999 63.076098999999999
16.744499000000001 61.377499 77.813202000000004
21.3169 68.650397999999996 94.387801999999994
21.553801 69.699698999999995 94.577202
21.256900999999999 68.873703000000006 98.320198000000005
20.914498999999999 67.460999000000001 97.902100000000004
20.459299000000001 69.726996999999997 90.581901999999999
20.379498999999999 67.070801000000003 102.36900300000001
2.12385 118.924004 67.399901999999997
18.650801000000001 65.810599999999994 106.896004
4.75732 115.466003 63.342998999999999
17.365400000000001 66.105002999999996 110.110001
16.906690999999999 64.777336000000005 109.774872
14.4573 67.576897000000002 113.81500200000001
17.270499999999998 101.49099699999999 99.940002000000007
4.50129 115.43699599999999 67.7286
19.346299999999999 61.960200999999998 100.50700399999999
5.4546999999999999 111.487999 67.872703999999999
1.2557799999999999 108.144997 62.768501000000001
19.780100000000001 64.622497999999993 89.105202000000006
1.3825700000000001 108.17600299999999 67.627998000000005
4.4549599999999998 116.239998 56.597900000000003
4.8963099999999997 115.427002 60.248600000000003
5.5815000000000001 111.960999 55.721699000000001
5.6274009999999999 111.73597700000001 60.402054
1.23383 108.28600299999999 59.007198000000002
2.7480799999999999 116.693001 67.606696999999997
4.42082 109.751999 55.441299000000001
20.306298999999999 68.417702000000006 90.162398999999994
3.5049000000000001 98.026900999999995 77.263801999999998
4.6011670000000002 109.377548 62.876995000000001
4.67685 109.31999999999999 68.031700000000001
3.4327200000000002 95.773903000000004 75.724402999999995
3.2753899999999998 93.943603999999993 74.618301000000002
3.06751 90.850898999999998 73.539299
1.85816 92.152985000000001 74.727660999999998
3.3269299999999999 109.132637 57.047863
3.9357310000000001 109.12228399999999 63.542651999999997
2.9553400000000001 108.304001 63.423499999999997
0.41209000000000001 107.75 58.600299999999997
-0.41940499999999997 107.648003 62.461799999999997
3.4527800000000002 76.680396999999999 74.875
-0.46085799999999999 107.694 67.441399000000004
1.2972300000000001 81.154799999999994 75.138298000000006
3.2455099999999999 81.671798999999993 74.440903000000006
3.6137100000000002 71.615798999999996 74.038596999999996
6.3861699999999999 107.611 87.473099000000005
13.1579 105.317001 82.652901
15.2605 104.873001 83.156302999999994
15.4971 102.49700199999999 79.078795999999997
13.578200000000001 102.650002 78.740402000000003
-0.50231000000000003 119.781998 55.582901
7.5286999999999997 72.336699999999993 74.701796999999999
5.0548000000000002 72.032798999999997 74.209297000000007
-0.48280299999999998 119.81999999999999 60.216498999999999
10.919 72.202904000000004 75.284599
13.027200000000001 71.514296999999999 76.266800000000003
17.457899000000001 70.515197999999998 80.157096999999993
19.463498999999999 71.774597 82.312599000000006
23.2225 76.647598000000002 87.233101000000005
21.776800000000001 73.645499999999998 87.263496000000004
22.350999999999999 74.008399999999995 82.656097000000003
23.41 77.314598000000004 82.783600000000007
-0.533022 119.944397 63.358463
21.830998999999998 72.711799999999997 91.343497999999997
22.986601 75.979400999999996 91.468497999999997
23.250699999999998 75.629799000000006 95.618896000000007
5.0604300000000002 103.474998 80.946601999999999
7.1462399999999997 104.62400100000001 81.005996999999994
8.5109600000000007 101.74700199999999 77.293899999999994
-0.39745900000000001 108.08000199999999 54.380401999999997
5.5790100000000002 99.271202000000002 76.960402999999999
9.1543899999999994 105.36599699999999 81.487503000000004
-0.41209000000000001 107.75 58.600299999999997
11.958399999999999 102.751999 78.322800000000001
10.192500000000001 102.62400100000001 77.753197
9.43797 108.146004 93.466103000000004
10.3911 107.778999 87.519203000000005
-2.12385 118.924004 67.399901999999997
7.7150999999999996 108.593002 93.474997999999999
12.4381 107.318001 87.988097999999994
11.161899999999999 107.721001 93.764702
13.0989 106.98200199999999 94.007796999999997
-4.75732 115.466003 63.342998999999999
17.253799000000001 101.459 79.530501999999998
-4.50129 115.43699599999999 67.7286
16.325500000000002 105.72399900000001 88.749900999999994
15.1196 105.792 94.251098999999996
24.0289 87.310997 86.294403000000003
23.555700000000002 82.306197999999995 86.908302000000006
23.658999999999999 82.945899999999995 82.363602
23.814899 87.251801 81.760200999999995
21.6432 95.886200000000002 84.961799999999997
23.343399000000002 91.594299000000007 85.528000000000006
22.9709 90.716697999999994 81.290702999999993
21.364000000000001 94.571899000000002 80.761298999999994
23.697299999999998 86.916900999999996 95.516197000000005
23.481701000000001 80.882103000000001 95.611098999999996
23.494199999999999 81.713997000000006 91.302002000000002
23.8904 87.270302000000001 90.958602999999997
20.7866 97.901398 94.897400000000005
22.876899999999999 92.623299000000003 95.2286
23.202998999999998 92.468802999999994 90.443603999999993
21.272099999999998 97.473502999999994 89.824402000000006
-5.5741800000000001 111.606003 63.272300999999999
-5.4546999999999999 111.487999 67.872703999999999
-2.1019000000000001 108.363998 63.090198999999998
-1.2557799999999999 108.144997 62.768501000000001
19.294799999999999 70.864898999999994 86.660301000000004
-1.3825700000000001 108.17600299999999 67.627998000000005
19.311802 97.652778999999995 80.306327999999993
18.7698 102.024002 89.258499
19.289400000000001 100.97399900000001 89.394501000000005
19.476299000000001 99.561599999999999 84.412696999999994
-4.4549599999999998 116.239998 56.597900000000003
18.022300999999999 102.277 94.580298999999997
18.6661 101.343002 94.651900999999995
-4.8963099999999997 115.427002 60.248600000000003
-5.5815000000000001 111.960999 55.721699000000001
-5.6278300000000003 111.766998 59.895099999999999
-4.9962799999999996 113.33699799999999 60.051102
-1.23383 108.28600299999999 59.007198000000002
4.9177 89.589400999999995 71.991996999999998
4.3140200000000002 89.599997999999999 72.724602000000004
-2.7480799999999999 116.693001 67.606696999999997
-4.42082 109.751999 55.441299000000001
7.8588699999999996 92.787696999999994 70.105300999999997
9.1335599999999992 93.896500000000003 67.375
8.7034500000000001 92.365402000000003 67.231598000000005
-5.1328300000000002 110.356003 59.712001999999998
11.6004 99.930098999999998 62.537998000000002
11.3012 99.161002999999994 64.947899000000007
-4.618862 109.38211800000001 62.994517999999999
12.222 100.650002 62.596198999999999
10.442330999999999 97.141898999999995 64.891396
10.782175000000001 97.981803999999997 62.405037
9.2556600000000007 93.961699999999993 64.343299999999999
-4.67685 109.31999999999999 68.031700000000001
-5.1572199999999997 110.19899700000001 63.242100000000001
0.66691199999999995 108.720009 85.023560000000003
8.3182799999999997 90.802802999999997 64.049201999999994
3.2528299999999999 117.46700300000001 84.280197000000001
8.9195100000000007 93.899497999999994 61.676102
8.5685300000000009 92.398499000000001 61.3932
9.5758500000000009 87.096198999999999 63.549399999999999
8.5193999999999992 88.874602999999993 63.951000000000001
3.9502100000000002 116.566002 84.343102000000002
9.6581200000000003 89.355598000000001 60.522700999999998
13.3635 83.712303000000006 61.639499999999998
11.5565 85.226601000000002 62.632300999999998
11.5825 87.760002 59.438701999999999
13.263 86.664703000000003 58.580798999999999
10.1287 93.446197999999995 55.795600999999998
9.8238699999999994 91.568100000000001 58.039799000000002
8.9901400000000002 92.714202999999998 58.694800999999998
5.3400999999999996 112.96700300000001 84.656897999999998
12.9628 89.390998999999994 56.445999
0.44970199999999999 120.11318199999999 78.929259999999999
11.4977 92.337401999999997 55.055401000000003
12.7743 91.650902000000002 54.467998999999999
9.3675200000000007 95.140197999999998 57.002997999999998
8.9227900000000009 93.773300000000006 59.215899999999998
1.9215690000000001 119.12453499999999 73.956519999999998
10.505599999999999 97.905097999999995 57.936100000000003
1.3362400000000001 119.86599699999999 78.657996999999995
1.4689810000000001 119.759209 69.424323999999999
3.2894000000000001 117.20700100000001 78.959098999999995
11.2378 100.318001 58.466900000000003
3.5161699999999998 116.858002 73.361396999999997
3.9453299999999998 116.227997 79
5.27182 111.922997 73.650299000000004
11.562099999999999 103.550003 54.506199000000002
5.2328099999999997 112.425003 79.192001000000005
12.1037 103.219002 56.805500000000002
2.5543559999999998 108.90222900000001 75.153023000000005
11.239506 100.382912 55.590541999999999
1.6594690000000001 108.63278200000001 74.872681
2.195567 117.330421 75.968070999999995
10.9628 100.800003 53.654800000000002
9.8976000000000006 96.508101999999994 54.784697999999999
1.9775400000000001 117.666 84.319503999999995
10.2431 98.952202 53.283698999999999
4.7228329999999996 109.846497 75.351417999999995
10.6051 94.892302999999998 53.703499000000001
5.09138 110.995003 79.274101000000002
5.0767499999999997 110.50700399999999 73.702697999999998
4.8451000000000004 110.74900100000001 84.886803
12.756600000000001 93.429603999999998 52.597197999999999
-0.54191400000000001 108.01886 74.048141000000001
-0.66812199999999999 108.718002 84.987296999999998
-1.2484599999999999 119.851997 84.000504000000006
9.6054200000000005 97.469596999999993 50.755198999999998
-3.2528299999999999 117.46700300000001 84.280197000000001
-3.9502100000000002 116.566002 84.343102000000002
-5.3400999999999996 112.96700300000001 84.656897999999998
-0.470611 120.031998 73.0839
11.244528000000001 104.559372 52.970455000000001
11.7066 105.248001 52.998900999999996
-0.456071 120.136948 80.611687000000003
13.617900000000001 102.570999 59.147399999999998
-1.815798 119.20880099999999 78.281265000000005
-1.346428 119.861664 77.900169000000005
-3.2894000000000001 117.20700100000001 78.959098999999995
13.3436 105.537003 53.040698999999996
-3.5161699999999998 116.858002 73.361396999999997
-3.9453299999999998 116.227997 79
14.327214 94.570983999999996 50.986606999999999
-5.27182 111.922997 73.650299000000004
-5.2328099999999997 112.425003 79.192001000000005
15.032500000000001 91.516402999999997 54.087100999999997
15.5327 89.123901000000004 55.911999000000002
-2.0848300000000002 117.87400100000001 73.316299000000001
15.9536 86.366698999999997 58.097099
16.270299999999999 83.001900000000006 60.851700000000001
-4.7061250000000001 109.786964 74.769981000000001
-5.0606559999999998 110.77668 77.102905000000007
12.768800000000001 100.181999 65.053000999999995
-4.8451000000000004 110.74900100000001 84.886803
14.8454 104.866997 52.997601000000003
-19.465208000000001 96.443481000000006 8.9663009999999996
15.829000000000001 102.31300400000001 52.688400000000001
-19.381996000000001 95.059646999999998 9.3443930000000002
16.948098999999999 100.47199999999999 52.073501999999998
-18.178051 92.822104999999993 9.9065159999999999
15.005499 95.165381999999994 49.443446999999999
-16.996199000000001 92.110923999999997 10.037558000000001
17.7514 98.138801999999998 50.995700999999997
-14.018508000000001 91.694702000000007 10.019373
16.002800000000001 95.343697000000006 51.401699000000001
-11.264981000000001 92.245330999999993 9.5478159999999992
-9.660266 94.243767000000005 8.7817519999999991
-9.4092730000000007 97.142700000000005 7.9692439999999998
17.395700000000001 97.388701999999995 52.470298999999997
17.716801 96.419403000000003 54.256999999999998
-10.124649 99.876244 7.5514029999999996
-14.276866 101.449646 7.7778289999999997
-16.144736999999999 101.553123 7.6452980000000004
-18.0975 100.389 7.9134700000000002
-15.2423 101.86799600000001 13.7912
-15.943 102.41100299999999 15.716100000000001
15.078799999999999 102.66799899999999 54.276401999999997
15.601000000000001 101.03299699999999 55.970402
-16.621037000000001 101.519882 15.928673
-17.5641 98.450301999999994 14.6051
-17.1647 96.706199999999995 15.027100000000001
-16.090199999999999 95.708504000000005 15.383699999999999
-17.640699000000001 95.546501000000006 12.5204
-16.657699999999998 93.102599999999995 11.754099999999999
15.148 101.14299800000001 60.876801
14.9747 101.845001 58.871699999999997
-18.6432 96.677199999999999 10.5616
-17.892799 98.197601000000006 11.714600000000001
-16.804251000000001 99.431717000000006 11.340197
18.159400999999999 98.433800000000005 60.416401
17.3645 99.242203000000003 58.184199999999997
-14.1069 95.351096999999996 15.386200000000001
-14.1142 96.036102 17.1661
19.400700000000001 95.291702000000001 59.326199000000003
18.641399 96.624602999999993 57.134200999999997
-14.0868 93.936501000000007 12.9543
-13.465199999999999 100.916 10.838900000000001
-13.444000000000001 102.75099899999999 15.388400000000001
-13.44 101.90300000000001 13.6189
-11.9739 99.947601000000006 10.802199999999999
-11.034599999999999 98.478797999999998 10.874599999999999
-10.1447 95.941901999999999 9.8868899999999993
19.128401 91.849800000000002 57.581200000000003
18.254999000000002 93.875702000000004 55.526401999999997
-11.944100000000001 96.375900000000001 14.5983
18.528500000000001 87.662300000000002 58.918900000000001
18.914400000000001 84.551697000000004 61.655898999999998
-11.482900000000001 97.690697 16.361401000000001
-11.229100000000001 99.683197000000007 15.784700000000001
20.246798999999999 91.422202999999996 60.846801999999997
20.618099000000001 89.445503000000002 63.807301000000002
20.183299999999999 87.089798000000002 62.969200000000001
-11.555999999999999 99.540497000000002 13.713100000000001
19.504000000000001 95.810699 62.052601000000003
19.7255 94.320396000000002 64.584502999999998
20.207899000000001 92.078002999999995 64.277396999999993
-17.945601 101.396004 19.025200000000002
-18.236678999999999 99.872009000000006 18.778503000000001
18.068100000000001 97.649399000000003 64.822197000000003
-16.610600000000002 103.44699900000001 18.145599000000001
-17.816465000000001 97.239586000000003 19.270779000000001
16.396999000000001 98.979202000000001 64.875900000000001
-18.120363000000001 98.349968000000004 18.679566999999999
-16.4284 95.920501999999999 20.025998999999999
-14.147399999999999 95.496596999999994 20.110700999999999
15.2395 99.853995999999995 64.971298000000004
-11.966200000000001 96.121002000000004 20.018899999999999
10.7021 99.226699999999994 75.355300999999997
12.186199999999999 99.713997000000006 75.575798000000006
12.3042 99.561797999999996 74.791199000000006
10.8558 99.107399000000001 74.671599999999998
12.826000000000001 99.160895999999994 70.910697999999996
13.2203 99.421204000000003 68.230002999999996
-13.070499999999999 96.157700000000006 18.149999999999999
11.7774 99.005797999999999 70.900902000000002
7.9279000000000002 97.153503000000001 74.739502000000002
9.2335700000000003 98.428702999999999 75.082001000000005
9.4691500000000008 98.339302000000004 74.360802000000007
-11.313826000000001 102.74659699999999 18.040457
16.027699999999999 73.831397999999993 71.510399000000007
15.8131 71.744797000000005 74.889602999999994
14.2705 72.523398999999998 74.055999999999997
14.392891000000001 74.367508000000001 71.365729999999999
14.9329 79.487099000000001 64.506202999999999
16.390899999999998 79.367203000000003 64.363997999999995
16.299199999999999 76.438102999999998 67.967299999999994
-11.304152 102.45450599999999 17.355945999999999
10.676600000000001 74.705498000000006 74.111801
10.83 76.363097999999994 72.342796000000007
12.9018 75.046402 71.663596999999996
11.44 99.113799999999998 68.190299999999993
10.6882 98.275199999999998 68.059798999999998
9.7552699999999994 97.650702999999993 70.789496999999997
-16.278998999999999 97.589896999999993 25.617201000000001
11.5924 81.904799999999994 65.910797000000002
-14.8896 96.786902999999995 25.7075
13.159800000000001 77.511100999999996 68.599402999999995
11.2681 79.188400000000001 69.222801000000004
8.5893599999999992 86.733902 67.065201000000002
9.6919699999999995 84.549400000000006 66.785004000000001
9.1286500000000004 81.534698000000006 69.866302000000005
7.8608399999999996 84.104102999999995 69.933197000000007
-11.778600000000001 97.945098999999999 24.206399999999999
8.2276799999999994 88.921897999999999 67.066704000000001
7.3736899999999999 87.367996000000005 69.873001000000002
-11.317399999999999 98.843902999999997 23.999300000000002
-11.194699999999999 100.043999 24.846700999999999
-11.026300000000001 99.899101000000002 23.739799000000001
8.20425 94.450699 70.406799000000007
8.8367000000000004 96.062599000000006 70.634101999999999
-11.88682 102.50202899999999 23.440746000000001
-12.219526 103.124107 23.691471
6.4789899999999996 95.583602999999997 73.482498000000007
5.0731599999999997 84.797095999999996 72.285599000000005
-15.2392 103.328003 24.389399999999998
-15.486991 103.32196 23.377813
-16.755924 101.27668799999999 24.827698000000002
7.3485199999999997 76.690498000000005 74.438498999999993
-17.818398999999999 98.554901000000001 49.400500999999998
6.3314300000000001 81.074798999999999 72.848999000000006
7.95486 78.207999999999998 73.291397000000003
15.3965 98.926697000000004 68.097397000000001
-17.628799000000001 99.542998999999995 49.794601
-15.7722 102.778999 51.035300999999997
15.402799999999999 98.727097000000001 70.826103000000003
15.528499999999999 99.610900999999998 75.957001000000005
-15.0289 103.616997 47.339100000000002
-15.4788 102.44699900000001 49.065398999999999
-14.8619 105.260513 51.495196999999997
-13.9785 105.50299800000001 47.785499999999999
-14.565300000000001 104.827003 47.618099000000001
-14.604827 105.260246 50.088042999999999
17.645201 95.490798999999996 70.676102
18.283701000000001 95.592903000000007 74.851196000000002
17.155799999999999 97.944702000000007 75.143799000000001
-14.069100000000001 104.58699799999999 42.834800999999999
19.165600000000001 94.285004000000001 67.609497000000005
-15.3217 101.74299600000001 42.610802
19.215599000000001 92.645202999999995 70.669296000000003
22.223801000000002 90.322097999999997 77.474898999999994
20.877199000000001 90.934700000000007 74.278000000000006
-15.438499999999999 101.92600299999999 45.0961
20.564699000000001 93.380898000000002 77.126503
20.576599000000002 90.319999999999993 67.280403000000007
-16.257299 98.132796999999997 42.521000000000001
-16.665800000000001 99.024101000000002 27.641000999999999
21.384501 87.812201999999999 70.628699999999995
23.610299999999999 83.473502999999994 77.959502999999998
22.857599 85.414398000000006 74.155997999999997
21.977301000000001 88.340301999999994 74.129501000000005
23.221800000000002 87.259597999999997 77.764999000000003
-16.3813 98.169701000000003 27.842500999999999
19.2285 81.084800999999999 64.905700999999993
20.122 77.881698999999998 68.405799999999999
-16.177401 98.014801000000006 31.079901
20.549399999999999 84.288300000000007 66.049103000000002
20.939198999999999 87.311501000000007 66.940299999999993
22.014299000000001 84.835503000000003 70.260802999999996
21.608499999999999 81.293296999999995 69.365898000000001
22.969298999999999 74.879204000000001 77.523003000000003
22.673400999999998 77.728699000000006 72.905197000000001
23.213698999999998 81.607697000000002 73.731003000000001
23.757798999999999 78.820899999999995 77.948195999999996
18.330299 73.445601999999994 71.717499000000004
20.843699999999998 74.720802000000006 72.068702999999999
20.806699999999999 71.978499999999997 76.784103000000002
17.945699999999999 71.205803000000003 75.780296000000007
-16.399099 100.792 30.606999999999999
-14.542408999999999 103.59371899999999 27.166391000000001
-14.867800000000001 103.27600099999999 30.448
-18.169701 100.095001 22.3034
18.740100999999999 96.073997000000006 76.763000000000005
-17.807500999999998 101.35900100000001 21.893298999999999
19.662099999999999 91.662497999999999 2.5500400000000001
17.099299999999999 93.571601999999999 2.42767
20.0762 93.015602000000001 2.6064699999999998
17.323098999999999 89.463997000000006 2.49451
15.104456000000001 91.764336 2.3900009999999998
-17.770399000000001 97.717399999999998 22.708200000000001
13.9475 88.589698999999996 2.51396
-18.128599000000001 98.772696999999994 22.579201000000001
10.9672 89.823798999999994 2.6274199999999999
12.147413 92.838959000000003 2.487282
-13.932237000000001 95.029182000000006 48.911724
9.3331300000000006 92.124297999999996 2.7602199999999999
-13.5419 96.433800000000005 42.353901
9.2867099999999994 94.607367999999994 2.8688790000000002
-13.769399999999999 96.553000999999995 31.282399999999999
10.064881 98.476134999999999 2.9525800000000002
-14.663399999999999 96.723701000000005 28.100100000000001
11.735246999999999 99.710273999999998 2.933462
12.928858999999999 97.386336999999997 2.6205940000000001
-14.218 95.895302000000001 22.7271
13.22682 99.540535000000006 2.897078
17.4207 99.854102999999995 2.8555000000000001
16.443117000000001 97.244865000000004 2.5645250000000002
-15.314399999999999 95.942902000000004 22.749200999999999
18.239000000000001 99.126503 2.8305899999999999
18.944799 97.841301000000001 2.7938800000000001
-14.299300000000001 104.00900300000001 20.883600000000001
10.648999999999999 100.306999 5.9202500000000002
-13.192600000000001 103.693001 26.781099000000001
9.9868299999999994 99.430496000000005 6.0021300000000002
9.5563699999999994 98.139296999999999 6.1419300000000003
-13.030900000000001 96.138496000000004 22.640799999999999
9.3447300000000002 95.002601999999996 6.61477
-11.947100000000001 101.606003 30.511101
10.133100000000001 92.305999999999997 7.2141599999999997
-11.3917 100.704002 27.02
12.4465 90.857596999999998 7.7013800000000003
10.935600000000001 90.154601999999997 4.43309
10.880000000000001 89.625298000000001 3.0558900000000002
-11.4282 98.657996999999995 30.763598999999999
12.3123 89.444396999999995 4.5287300000000004
-11.986499999999999 97.099602000000004 42.370800000000003
-11.069900000000001 99.814301 42.442599999999999
9.0959389999999996 93.594322000000005 3.4171990000000001
-12.0082 101.67600299999999 42.573898
9.4680999999999997 97.522102000000004 4.1462899999999996
-11.9999 102.866997 45.199001000000003
-11.7364 101.73400100000001 45.006900999999999
-11.9703 103.82399700000001 42.746299999999998
14.7013 100.885002 6.0179799999999997
-11.9719 105.616997 49.998100000000001
13.1663 100.13800000000001 4.2415399999999996
-11.521000000000001 104.887001 49.780299999999997
-11.211499999999999 104.987999 51.364398999999999
15.6671 89.179398000000006 4.7260799999999996
-11.697900000000001 105.665001 51.403998999999999
-9.5985600000000009 98.846198999999999 49.596401
15.5916 90.803802000000005 7.96645
-10.001899999999999 100.329002 50.096499999999999
16.312201000000002 100.620003 4.4525199999999998
-11.7065 95.827399999999997 48.4529
18.428723999999999 99.237305000000006 3.2938320000000001
19.142166 97.936347999999995 3.289663
20.016100000000002 94.899497999999994 4.8587300000000004
-10.530326000000001 101.094376 18.940617
-16.889700000000001 97.783501000000001 45.708500000000001
-10.4573 97.067595999999995 47.152698999999998
19.697901000000002 91.991095999999999 4.8993200000000003
-12.7119 96.022696999999994 45.306399999999996
-12.722265999999999 95.623901000000004 46.586891000000001
-16.373438 100.791656 35.728003999999999
-14.861000000000001 102.40799699999999 38.254902000000001
-15.083328 102.503479 30.613682000000001
-15.4152 101.556999 38.258201999999997
-16.574674999999999 98.987183000000002 35.879826000000001
18.372999 91.988097999999994 7.8761700000000001
-16.268709000000001 98.069839000000002 36.152107000000001
19.638300000000001 94.372001999999995 7.4748299999999999
-11.9322 103.345001 38.255401999999997
19.421700000000001 97.401702999999998 6.9648500000000002
-11.9899 103.225998 34.210999000000001
18.286301000000002 100.05300099999999 6.48278
-12.2851 103.716003 34.186400999999996
17.459101 100.81500200000001 6.3132200000000003
-11.965299999999999 101.55300099999999 38.246200999999999
-11.9255 101.578003 34.282200000000003
-11.197989 98.782753 35.960380999999998
-11.530725 97.925735000000003 36.723529999999997
18.811181999999999 93.708336000000003 9.0025250000000003
18.053616000000002 92.716224999999994 9.2435910000000003
16.958781999999999 92.062447000000006 9.3827429999999996
-12.8573 96.619101999999998 38.385899000000002
14.037601 91.618103000000005 9.3243600000000004
-12.206016999999999 97.160758999999999 35.789290999999999
11.2859 92.216498999999999 9.4552099999999992
10.286522 93.099838000000005 9.1880659999999992
15.2423 101.86799600000001 13.7912
15.943 102.41100299999999 15.716100000000001
16.873932 101.152878 16.004854000000002
17.5641 98.450301999999994 14.6051
17.1647 96.706199999999995 15.027100000000001
16.090199999999999 95.708504000000005 15.383699999999999
17.641279000000001 95.434082000000004 12.425412
16.657699999999998 93.102599999999995 11.754099999999999
18.6432 96.677199999999999 10.5616
17.892799 98.197601000000006 11.714600000000001
16.92201 99.292168000000004 11.288678000000001
-3.5049000000000001 98.026802000000004 77.263701999999995
14.1069 95.351096999999996 15.386200000000001
14.1142 96.036102 17.1661
-3.4327200000000002 95.773803999999998 75.724402999999995
-3.2753899999999998 93.943496999999994 74.618301000000002
-3.06751 90.850800000000007 73.539299
-1.8409899999999999 91.473197999999996 74.445999
14.0868 93.936501000000007 12.9543
13.465199999999999 100.916 10.838900000000001
13.444000000000001 102.75099899999999 15.388400000000001
13.44 101.90300000000001 13.6189
11.9739 99.947601000000006 10.802199999999999
11.034599999999999 98.478797999999998 10.874599999999999
-3.4527800000000002 76.680396999999999 74.875
-1.3825700000000001 76.087799000000004 75.165099999999995
-1.2972300000000001 81.154799999999994 75.138298000000006
-3.2455099999999999 81.671798999999993 74.440903000000006
-3.6137100000000002 71.615798999999996 74.038596999999996
-6.3861699999999999 107.611 87.473099000000005
-13.1579 105.317001 82.652901
-15.2605 104.873001 83.156302999999994
-15.4971 102.49700199999999 79.078795999999997
-13.578200000000001 102.650002 78.740402000000003
11.944100000000001 96.375900000000001 14.5983
-7.5286999999999997 72.336699999999993 74.701796999999999
-5.0548000000000002 72.032798999999997 74.209297000000007
11.482900000000001 97.690697 16.361401000000001
-10.919 72.202904000000004 75.284599
-13.027200000000001 71.514296999999999 76.266800000000003
-17.457899000000001 70.515197999999998 80.157096999999993
-19.463498999999999 71.774597 82.312599000000006
-23.2225 76.647598000000002 87.233101000000005
-21.776800000000001 73.645499999999998 87.263496000000004
-22.350999999999999 74.008399999999995 82.656097000000003
-23.41 77.314598000000004 82.783600000000007
11.229100000000001 99.683197000000007 15.784700000000001
-21.830998999999998 72.711799999999997 91.343497999999997
-22.986601 75.979400999999996 91.468497999999997
-23.250699999999998 75.629799000000006 95.618896000000007
-5.0604300000000002 103.474998 80.946503000000007
-7.1462399999999997 104.62400100000001 81.005996999999994
-8.5109600000000007 101.74700199999999 77.293899999999994
11.555999999999999 99.540497000000002 13.713100000000001
-5.5789999999999997 99.271202000000002 76.960402999999999
-9.1543899999999994 105.36599699999999 81.487503000000004
12.155982 101.666496 15.589627999999999
-11.958399999999999 102.751999 78.322800000000001
-10.192500000000001 102.62400100000001 77.753197
-9.43797 108.146004 93.466103000000004
-10.3911 107.778999 87.519203000000005
18.246168000000001 99.917274000000006 18.860678
-7.7150999999999996 108.593002 93.474997999999999
-12.4381 107.318001 87.988097999999994
-11.161899999999999 107.721001 93.764702
-13.0989 106.98200199999999 94.007796999999997
17.934695999999999 101.340508 18.495338
-17.253799000000001 101.459 79.530501999999998
16.610600000000002 103.44699900000001 18.145599000000001
-16.325500000000002 105.72399900000001 88.749900999999994
-15.1196 105.792 94.251098999999996
-24.0289 87.310997 86.294403000000003
-23.555700000000002 82.306197999999995 86.908302000000006
-23.658999999999999 82.945899999999995 82.363602
-23.814899 87.251801 81.760200999999995
-21.6432 95.886200000000002 84.961799999999997
-23.343399000000002 91.594299000000007 85.528000000000006
-22.9709 90.716697999999994 81.290702999999993
-21.364000000000001 94.571899000000002 80.761298999999994
-23.697299999999998 86.916900999999996 95.516197000000005
-23.481701000000001 80.882103000000001 95.611098999999996
-23.494199999999999 81.713997000000006 91.302002000000002
-23.8904 87.270302000000001 90.958602999999997
-20.7866 97.901398 94.897400000000005
-22.876899999999999 92.623299000000003 95.2286
-23.202998999999998 92.468802999999994 90.443603999999993
-21.272099999999998 97.473502999999994 89.824402000000006
17.833808999999999 97.219016999999994 19.472971000000001
18.117356999999998 98.350882999999996 18.647751
16.4284 95.920501999999999 20.025998999999999
14.147399999999999 95.496596999999994 20.110700999999999
11.966200000000001 96.121002000000004 20.018899999999999
13.070499999999999 96.157700000000006 18.149999999999999
-18.764299000000001 98.710402999999999 80.133598000000006
10.498943000000001 99.613365000000002 18.441967000000002
-18.7698 102.024002 89.258499
-19.289400000000001 100.97399900000001 89.394501000000005
-19.476299000000001 99.561599999999999 84.412696999999994
11.326789 102.76847100000001 17.975462
-18.022300999999999 102.277 94.580298999999997
-18.6661 101.343002 94.651900999999995
16.278998999999999 97.589896999999993 25.617201000000001
14.129099999999999 96.611198000000002 24.509501
11.778600000000001 97.945098999999999 24.206399999999999
11.428900000000001 99.011596999999995 25.082701
-4.9177 89.589400999999995 71.991996999999998
-4.3140200000000002 89.599997999999999 72.724602000000004
11.317399999999999 98.843902999999997 23.999300000000002
11.026300000000001 99.899101000000002 23.739799000000001
-7.8588699999999996 92.787696999999994 70.105300999999997
-9.1335599999999992 93.896500000000003 67.375
-8.7034500000000001 92.365402000000003 67.231598000000005
12.035579 102.628181 24.209278000000001
-11.555973 99.853095999999994 62.566589
-11.3012 99.161002999999994 64.947899000000007
11.728532 102.371849 22.934956
-12.222 100.650002 62.596198999999999
-10.387485 96.996559000000005 64.668555999999995
-10.944229 98.386641999999995 62.387264000000002
-9.2556600000000007 93.961699999999993 64.343299999999999
12.225184 103.152657 23.468689000000001
15.313369 103.343338 23.735710000000001
15.622463 102.950577 24.057306000000001
-8.3182799999999997 90.802802999999997 64.049201999999994
16.740473000000001 101.29941599999999 24.856857000000002
-8.9195100000000007 93.899497999999994 61.676102
-8.5685300000000009 92.398499000000001 61.3932
-9.5758500000000009 87.096198999999999 63.549399999999999
-8.5193999999999992 88.874602999999993 63.951000000000001
17.628799000000001 99.542998999999995 49.794601
-9.6581200000000003 89.355598000000001 60.522700999999998
-13.3635 83.712303000000006 61.639499999999998
-11.5565 85.226601000000002 62.632300999999998
-11.5825 87.760002 59.438701999999999
-13.263 86.664703000000003 58.580798999999999
-9.8516080000000006 92.032653999999994 57.551704000000001
-8.9901400000000002 92.714202999999998 58.694800999999998
-9.4323599999999992 94.359298999999993 56.425300999999997
-12.9628 89.390998999999994 56.445999
-11.412081000000001 91.820625000000007 55.68441
-12.7743 91.650902000000002 54.467998999999999
-9.3675200000000007 95.140197999999998 57.002997999999998
-8.9227900000000009 93.773300000000006 59.215899999999998
15.0289 103.616997 47.339100000000002
-9.7278099999999998 96.319098999999994 57.504601000000001
15.4788 102.44699900000001 49.065398999999999
14.978999999999999 104.012001 49.575901000000002
14.0032 105.785004 49.918399999999998
-11.581737 101.30435900000001 59.095440000000004
13.9785 105.50299800000001 47.785499999999999
-12.129543 101.80933400000001 59.790840000000003
-11.562099999999999 103.550003 54.506199000000002
14.565300000000001 104.827003 47.618099000000001
-12.1037 103.219002 56.805500000000002
14.069100000000001 104.58699799999999 42.834800999999999
-11.309170999999999 100.6735 55.591166999999999
15.3217 101.74299600000001 42.610802
-10.9628 100.800003 53.654800000000002
15.438499999999999 101.92600299999999 45.0961
-9.8976000000000006 96.508101999999994 54.784697999999999
16.257299 98.132796999999997 42.521000000000001
-10.2431 98.952202 53.283698999999999
16.665800000000001 99.024101000000002 27.641000999999999
-10.6051 94.892302999999998 53.703499000000001
16.3813 98.169701000000003 27.842500999999999
16.177401 98.014801000000006 31.079901
16.399099 100.792 30.606999999999999
-12.756600000000001 93.429603999999998 52.597197999999999
18.169701 100.095001 22.3034
17.807500999999998 101.35900100000001 21.893298999999999
17.770399000000001 97.717399999999998 22.708200000000001
18.128599000000001 98.772696999999994 22.579201000000001
13.5419 96.433800000000005 42.353901
13.769399999999999 96.553000999999995 31.282399999999999
14.218 95.895302000000001 22.7271
15.314399999999999 95.942902000000004 22.749200999999999
13.464600000000001 103.944 20.837
12.9955 103.856003 30.329799999999999
