79.726760999999996 1.853254 142.54586800000001
79.544867999999994 1.883248 142.037003
80.061324999999997 3.881211 142.91629
79.839691000000002 3.671208 143.68467699999999
79.886177000000004 3.240065 143.920929
81.527434999999997 3.4896479999999999 142.18185399999999
81.773810999999995 3.0366689999999998 142.62342799999999
78.878326000000001 4.2894249999999996 143.31372099999999
81.632271000000003 1.673311 142.56463600000001
82.573463000000004 1.904884 142.36679100000001
82.578140000000005 2.4854029999999998 142.384872
81.834511000000006 2.0912440000000001 142.77778599999999
79.667998999999995 1.8765590000000001 143.17546100000001
80.119300999999993 1.99102 143.350998
79.328643999999997 2.220669 144.03848300000001
80.273765999999995 2.4527760000000001 143.62617499999999
79.584496000000001 2.6067770000000001 141.85316499999999
80.627403000000001 1.770464 141.28439299999999
79.418991000000005 3.411581 141.963089
80.135681000000005 3.018478 141.507126
80.420105000000007 2.2605499999999998 141.25308200000001
81.272354000000007 3.266289 141.38699299999999
79.274047999999993 3.1570130000000001 141.594955
79.517334000000005 3.9933489999999998 142.749481
78.451751999999999 2.5499740000000002 141.695145
81.115341000000001 1.901648 141.03428600000001
80.976500999999999 1.5698399999999999 141.645996
81.486442999999994 2.8592810000000002 140.86972
79.142951999999994 3.1072470000000001 144.485703
82.430251999999996 1.3640730000000001 141.867569
82.660674999999998 1.597126 141.83590699999999
82.620086999999998 3.0072209999999999 142.04225199999999
81.916763000000003 3.4087900000000002 141.55313100000001
82.638321000000005 2.9147799999999999 140.155945
82.794853000000003 2.663449 141.10652200000001
82.812950000000001 2.2351899999999998 141.682312
83.120705000000001 2.4368289999999999 139.541
83.252762000000004 1.894228 139.79837000000001
83.253899000000004 1.288996 139.48088100000001
82.978370999999996 0.94923199999999996 139.25108299999999
82.582854999999995 0.96406899999999995 139.328079
82.296181000000004 1.1376809999999999 138.99551399999999
82.551353000000006 2.6874470000000001 139.30329900000001
82.116173000000003 2.3564180000000001 138.95249899999999
81.615027999999995 1.5031540000000001 140.98554999999999
81.718436999999994 1.3765080000000001 140.22139000000001
81.830200000000005 1.3348660000000001 141.683502
82.068603999999993 1.466237 139.03332499999999
81.602890000000002 1.823016 139.77789300000001
81.373099999999994 2.0995599999999999 140.699997
81.53022 2.5630289999999998 140.414917
81.890106000000003 2.800684 139.96502699999999
82.244857999999994 3.203986 140.795334
83.017501999999993 2.0518100000000001 137.63931299999999
83.390045000000001 1.3829530000000001 137.11805699999999
82.979056999999997 0.64148799999999995 137.77101099999999
83.260863999999998 0.82630499999999996 137.278549
83.342972000000003 1.177764 138.367142
83.473534000000001 1.626844 138.622772
83.034156999999993 2.3713600000000001 138.37373400000001
82.799706 1.8193630000000001 137.00968900000001
83.354256000000007 2.019781 138.42532299999999
82.652739999999994 2.465246 138.29441800000001
82.661109999999994 0.611205 137.830536
82.658882000000006 1.2149319999999999 136.93547100000001
82.551506000000003 0.80683300000000002 137.23228499999999
82.301865000000006 2.255871 138.127106
82.095496999999995 1.5474380000000001 137.634491
82.337851999999998 0.82386199999999998 137.96951300000001
82.44735 1.774322 137.101868
79.001296999999994 4.1041850000000002 142.44705200000001
80.421622999999997 4.4219920000000004 141.86874399999999
78.611923000000004 5.1744240000000001 142.92169200000001
80.393799000000001 5.0298559999999997 141.78478999999999
81.229423999999995 4.3997330000000003 141.296783
80.751166999999995 5.4306099999999997 141.074265
81.019165000000001 5.0014409999999998 141.28088399999999
79.464645000000004 5.7966240000000004 141.48362700000001
79.675467999999995 5.5628789999999997 141.85089099999999
78.445601999999994 5.7921699999999996 141.84300200000001
78.288146999999995 5.620844 142.59581
78.948204000000004 5.7097009999999999 141.19335899999999
79.780449000000004 4.9573039999999997 140.22279399999999
79.161345999999995 5.178293 140.672256
79.006966000000006 4.6522309999999996 140.52874800000001
79.856583000000001 4.124015 140.286057
80.03904 3.807601 140.576538
79.266402999999997 4.0347809999999997 140.52278100000001
78.279387999999997 4.9443669999999997 140.932602
78.462219000000005 4.3370139999999999 141.04170199999999
78.668434000000005 4.07104 141.29324299999999
80.627960000000002 5.4516340000000003 140.591736
80.873885999999999 5.0128750000000002 139.22723400000001
81.318946999999994 4.9793450000000004 140.15498400000001
80.036201000000005 5.4454200000000004 140.43699599999999
80.102974000000003 4.8038299999999996 139.68493699999999
80.557495000000003 4.3988139999999998 139.027344
81.512932000000006 4.360055 140.478027
80.924758999999995 3.9642930000000001 141.042664
81.776970000000006 3.6798229999999998 139.33306899999999
81.047568999999996 3.630789 139.98895300000001
80.751007000000001 3.5433759999999999 139.54838599999999
80.451935000000006 3.848976 139.14619400000001
80.112915000000001 3.9748809999999999 139.577911
81.296927999999994 4.82315 138.412857
81.954102000000006 4.0756300000000003 139.291
81.798721 4.5971719999999996 139.17482000000001
80.829643000000004 4.2873840000000003 138.10382100000001
81.045081999999994 3.1174499999999998 138.374222
80.579070999999999 3.7187320000000001 138.521286
82.107330000000005 3.9081959999999998 137.22998000000001
81.768303000000003 4.1768479999999997 137.41023300000001
82.004227 4.0434400000000004 138.416687
82.338676000000007 3.4411309999999999 137.44998200000001
81.998253000000005 3.1681490000000001 137.91632100000001
81.610420000000005 3.6667339999999999 137.06886299999999
81.076172 4.1103040000000002 137.59957900000001
81.863190000000003 3.1931409999999998 137.163589
81.566001999999997 3.1068199999999999 138.38400300000001
80.964950999999999 3.4458000000000002 137.652649
81.758849999999995 2.971733 137.45683299999999
15.790513000000001 97.293800000000005 31.612321999999999
15.7636 97.236098999999996 38.374599000000003
15.152825 96.714652999999998 38.246547999999997
14.661799999999999 103.43499799999999 38.271099
14.811226 103.284637 32.372219000000001
14.2471 103.777 34.209099000000002
14.139099999999999 104.00900300000001 38.243198
14.437225 96.511955 36.741390000000003
13.661314000000001 96.459564 37.557811999999998
12.011926000000001 97.065749999999994 42.388779
12.370148 97.185738000000001 31.473393999999999
13.060444 96.745468000000002 31.502006999999999
12.8573 96.619101999999998 38.385899000000002
11.578117000000001 97.919394999999994 35.671764000000003
11.143599999999999 98.811203000000006 38.308399000000001
11.250500000000001 98.761596999999995 34.432701000000002
11.323131 100.680099 34.467136000000004
11.151 99.722397000000001 34.336201000000003
11.1144 99.786102 38.274501999999998
12.143477000000001 102.375328 36.625369999999997
11.9255 101.578003 34.282200000000003
11.965299999999999 101.55300099999999 38.246200999999999
13.459300000000001 104.189003 38.218398999999998
13.555099999999999 103.959 34.184199999999997
12.892200000000001 103.93699599999999 34.175899999999999
12.8185 104.16300200000001 38.215198999999998
12.2851 103.716003 34.186400999999996
11.931967999999999 103.318558 37.912064000000001
12.215199999999999 103.903999 38.238300000000002
16.278708999999999 98.084198000000001 36.997917000000001
16.580126 98.990273000000002 35.803379
15.4152 101.556999 38.258201999999997
15.5382 101.601997 34.297600000000003
15.090788999999999 102.492577 30.590319000000001
14.861000000000001 102.40799699999999 38.254902000000001
16.698647999999999 99.925133000000002 34.737273999999999
16.373301000000001 100.81500200000001 34.3307
16.325299999999999 100.856003 38.272998999999999
14.262275000000001 96.369315999999998 44.462356999999997
13.365815 95.488349999999997 47.223705000000002
11.7384 96.126998999999998 46.781199999999998
11.807600000000001 96.498099999999994 45.448700000000002
12.7119 96.022696999999994 45.306399999999996
12.7265 95.623596000000006 46.578097999999997
9.7786600000000004 98.010802999999996 47.477901000000003
10.208500000000001 98.307700999999994 45.881999999999998
10.7315 97.360298 45.698501999999998
10.397536000000001 97.092101999999997 47.284927000000003
10.014098000000001 98.998131000000001 47.931548999999997
10.762499999999999 100.50900300000001 46.370998
10.4361 99.352203000000003 46.085200999999998
15.8919 96.782096999999993 45.492598999999998
15.991300000000001 96.472899999999996 46.819800999999998
14.9267 95.927398999999994 46.662899000000003
14.979744999999999 96.607856999999996 44.313549000000002
17.3596 98.872803000000005 45.871799000000003
17.796499000000001 98.699402000000006 47.475200999999998
17.172899000000001 97.597999999999999 47.158999999999999
16.889700000000001 97.783501000000001 45.708500000000001
16.625298999999998 101.00900300000001 46.426399000000004
16.863399999999999 101.029999 48.316898000000002
17.657499000000001 99.769997000000004 47.779201999999998
17.273099999999999 99.897300999999999 46.049500000000002
15.191675999999999 104.20845799999999 18.982344000000001
15.98207 103.873116 19.350012
13.5113 104.212997 18.841000000000001
14.3842 104.30300099999999 18.886800999999998
11.878268 103.51312299999999 19.290873000000001
12.5907 103.95500199999999 18.844298999999999
11.34492 102.791702 19.108167999999999
10.4292 99.707702999999995 20.287700999999998
10.523141000000001 101.08409899999999 19.107051999999999
11.2692 96.9422 21.086399
10.774699999999999 98.227699000000001 20.786200000000001
12.976900000000001 95.8386 21.2348
11.9983 96.260802999999996 21.172999999999998
15.336 95.638901000000004 21.286501000000001
14.1861 95.588898 21.287001
17.2516 96.537903 21.211200999999999
16.397099999999998 95.992301999999995 21.228200999999999
18.225052000000002 98.326515000000001 20.437033
17.855399999999999 97.345200000000006 21.225000000000001
17.204599000000002 102.614998 19.720600000000001
16.520201 103.46399700000001 19.354299999999999
17.923300000000001 101.41999800000001 20.235201
18.27 99.9739 20.6938
9.5704899999999995 97.872703999999999 49.188599000000004
11.7065 95.827399999999997 48.4529
12.7622 95.276802000000004 48.254500999999998
10.001899999999999 100.329002 50.096499999999999
9.5985600000000009 98.846198999999999 49.596401
11.047476 104.14969600000001 51.294449
10.6473 102.378998 50.865600999999998
10.960000000000001 102.15300000000001 48.803001000000002
11.5204 103.320999 47.142299999999999
11.2331 101.944 46.759498999999998
11.697900000000001 105.665001 51.403998999999999
11.211499999999999 104.987999 51.364398999999999
11.546052 104.819756 49.466084000000002
11.9719 105.616997 49.998100000000001
12.1069 105.30300099999999 47.851298999999997
11.9703 103.82399700000001 42.746299999999998
11.8934 104.043999 45.368400999999999
12.205605 104.75142700000001 45.465389000000002
11.7364 101.73400100000001 45.006900999999999
11.9999 102.866997 45.199001000000003
12.2217 102.697998 42.668700999999999
12.0082 101.67600299999999 42.573898
10.8292 99.666602999999995 44.682098000000003
11.1092 100.672997 44.809699999999999
11.334199999999999 100.77600099999999 42.487800999999997
11.069900000000001 99.814301 42.442599999999999
11.1213 97.785797000000002 44.537399000000001
10.76 98.705703999999997 44.617297999999998
11.020799999999999 98.839995999999999 42.420200000000001
11.3254 97.939400000000006 42.400100999999999
12.7089 96.462997000000001 44.363602
11.9122 96.926201000000006 44.438201999999997
12.7262 96.598800999999995 42.359402000000003
11.922796 98.027541999999997 25.471406999999999
11.799099999999999 97.829597000000007 30.9389
11.484695 98.679458999999994 29.007840999999999
12.465037000000001 97.411949000000007 25.748625000000001
13.164248000000001 96.977158000000003 25.716791000000001
11.2781 99.702697999999998 27.1707
11.27 99.611503999999996 30.557600000000001
11.4008 100.614998 30.472798999999998
11.3917 100.704002 27.02
11.8832 101.719002 26.9466
11.947100000000001 101.606003 30.511101
12.168200000000001 102.470001 30.482400999999999
12.140499999999999 102.524002 26.882601000000001
12.1709 103.114998 26.813700000000001
12.0625 103.185997 30.388300000000001
12.3759 103.64099899999999 30.332100000000001
12.64237 103.445267 25.050789000000002
12.623461000000001 103.53233299999999 22.548442999999999
11.385028 102.58674600000001 20.867189
10.587199999999999 100.862999 21.547599999999999
10.5001 99.678901999999994 21.938998999999999
10.8653 98.462997000000001 22.275801000000001
11.396800000000001 97.369003000000006 22.495999999999999
12.0844 96.616095999999999 22.566199999999998
13.030900000000001 96.138496000000004 22.640799999999999
13.012667 105.962997 51.398212000000001
13.288500000000001 105.924004 49.973700999999998
13.3194 105.654999 47.822600999999999
12.6966 105.605003 47.842700999999998
12.612399999999999 105.86199999999999 50.001998999999998
12.7593 104.96700300000001 45.438301000000003
13.367800000000001 105.011002 45.449902000000002
13.413 104.78800200000001 42.793799999999997
12.8019 104.748001 42.774600999999997
13.6654 103.886002 30.349701
13.8599 103.727997 26.812798999999998
13.192600000000001 103.693001 26.781099000000001
12.9955 103.856003 30.329799999999999
14.299300000000001 104.00900300000001 20.883600000000001
13.464600000000001 103.944 20.837
15.314399999999999 95.942902000000004 22.749200999999999
14.218 95.895302000000001 22.7271
14.851303 96.800926000000004 25.964486999999998
14.4983 96.573402000000002 31.315200999999998
13.769399999999999 96.553000999999995 31.282399999999999
14.030025999999999 96.761497000000006 25.779287
14.3172 96.452102999999994 42.367198999999999
13.5062 96.337799000000004 44.344898000000001
13.5419 96.433800000000005 42.353901
14.2021 95.262000999999998 48.224997999999999
17.116399999999999 96.880500999999995 22.693199
16.2927 96.290298000000007 22.706900000000001
18.128599000000001 98.772696999999994 22.579201000000001
17.770399000000001 97.717399999999998 22.708200000000001
17.807500999999998 101.35900100000001 21.893298999999999
18.169701 100.095001 22.3034
16.377001 103.216003 21.144600000000001
17.070499000000002 102.44899700000001 21.414100999999999
15.0383 103.24900100000001 26.926300000000001
14.502961000000001 103.602356 26.988972
15.6046 101.674004 30.535601
15.8489 101.91100299999999 27.043199999999999
15.3393 102.66300200000001 26.946199
16.648099999999999 99.818100000000001 30.714300000000001
16.816299000000001 100.012001 27.425301000000001
16.561800000000002 100.99900100000001 27.224299999999999
16.399099 100.792 30.606999999999999
15.967000000000001 97.466697999999994 27.999300000000002
15.2364 96.819901000000002 31.322399000000001
15.3935 96.985900999999998 28.091498999999999
16.467400000000001 98.853699000000006 30.899099
16.177401 98.014801000000006 31.079901
16.3813 98.169701000000003 27.842500999999999
16.665800000000001 99.024101000000002 27.641000999999999
15.6934 97.224800000000002 42.445202000000002
15.688000000000001 97.103897000000003 44.511799000000003
16.551600000000001 99.071601999999999 42.543399999999998
16.758199999999999 99.035697999999996 44.723801000000002
16.4163 98.059303 44.643002000000003
16.257299 98.132796999999997 42.521000000000001
16.221700999999999 100.977997 42.547001000000002
16.322299999999998 100.986 44.880797999999999
16.724501 100.008003 44.760899000000002
16.573399999999999 100.056999 42.528300999999999
14.847200000000001 103.014999 45.288898000000003
15.438499999999999 101.92600299999999 45.0961
15.3217 101.74299600000001 42.610802
14.7746 102.746002 42.7117
14.010300000000001 104.849998 45.478298000000002
14.544700000000001 104.21399700000001 45.422500999999997
14.5815 103.954002 42.808101999999998
14.069100000000001 104.58699799999999 42.834800999999999
14.616199999999999 105.19699900000001 49.780701000000001
14.565300000000001 104.827003 47.618099000000001
13.9785 105.50299800000001 47.785499999999999
14.0032 105.785004 49.918399999999998
14.852921 105.264359 51.414470999999999
14.208399999999999 105.879997 51.392600999999999
14.978999999999999 104.012001 49.575901000000002
15.4788 102.44699900000001 49.065398999999999
15.718999999999999 102.339996 46.959099000000002
15.0289 103.616997 47.339100000000002
15.7722 102.778999 51.035300999999997
16.959999 100.986 50.258099000000001
17.628799000000001 99.542998999999995 49.794601
15.9862 96.179198999999997 48.538798999999997
17.273399000000001 97.432502999999997 48.975898999999998
17.818398999999999 98.554901000000001 49.400500999999998
17.389600999999999 99.233199999999997 24.287399000000001
17.065200999999998 99.307297000000005 25.370000999999998
16.815200999999998 98.437697999999997 25.511399999999998
17.091100999999998 98.285399999999996 24.419701
17.120424 100.312836 24.972237
16.740473000000001 101.29941599999999 24.856857000000002
15.942774 102.38885500000001 24.536974000000001
15.622463 102.950577 24.057306000000001
15.313369 103.343338 23.735710000000001
14.747698 103.61557000000001 23.653534000000001
14.123431999999999 103.72910299999999 23.642081999999998
13.442855 103.69407699999999 23.517582000000001
12.225184 103.152657 23.468689000000001
11.728532 102.371849 22.934956
12.035579 102.628181 24.209278000000001
11.296563000000001 101.08712 24.067962999999999
11.026300000000001 99.899101000000002 23.739799000000001
11.194699999999999 100.043999 24.846700999999999
11.317399999999999 98.843902999999997 23.999300000000002
11.428900000000001 99.011596999999995 25.082701
11.778600000000001 97.945098999999999 24.206399999999999
12.363099999999999 97.283400999999998 24.313801000000002
13.1523 96.838898 24.418199999999999
14.129099999999999 96.611198000000002 24.509501
15.0379 96.652000000000001 24.551399
15.8543 96.957603000000006 24.517401
15.650499999999999 97.073195999999996 25.677799
16.535800999999999 97.491898000000006 24.4727
16.278998999999999 97.589896999999993 25.617201000000001
16.103811 103.60054 17.04928
15.386604 103.86972 16.808461999999999
15.281000000000001 104.24900100000001 17.669701
16.006398999999998 103.960999 17.864699999999999
14.468142 103.99587200000001 16.694489000000001
13.541178 103.891251 16.620975000000001
14.4315 104.32399700000001 17.555799
13.527100000000001 104.226997 17.512198999999999
11.912383999999999 102.804451 16.421047000000002
11.895092 103.496483 17.318950999999998
12.592506999999999 103.666252 16.725898999999998
12.5946 103.960999 17.5366
11.303337000000001 102.46771200000001 17.362499
11.2197 101.418999 16.693300000000001
11.326789 102.76847100000001 17.975462
10.653625999999999 100.785622 17.636454000000001
10.817 99.214500000000001 17.202000000000002
10.498943000000001 99.613365000000002 18.441967000000002
10.872239 98.021088000000006 18.576204000000001
11.572100000000001 96.987099000000001 17.879200000000001
11.2981 96.734200000000001 18.956800000000001
10.7765 98.090698000000003 19.561001000000001
11.225099999999999 96.724297000000007 19.904699000000001
12.0182 96.174400000000006 19.089898999999999
12.216900000000001 96.490402000000003 18.031700000000001
13.070499999999999 96.157700000000006 18.149999999999999
12.9701 95.819396999999995 19.1675
12.9483 95.739600999999993 20.081800000000001
11.966200000000001 96.121002000000004 20.018899999999999
14.120100000000001 95.941802999999993 18.243601000000002
15.1717 96.010300000000001 18.247999
15.2765 95.657996999999995 19.177299000000001
14.125 95.586303999999998 19.198699999999999
14.147399999999999 95.496596999999994 20.110700999999999
15.3238 95.556800999999993 20.0947
17.006799999999998 96.829200999999998 18.055
17.238899 96.537200999999996 19.032499000000001
16.375999 96.030602000000002 19.098400000000002
16.195999 96.367401000000001 18.148099999999999
16.4284 95.920501999999999 20.025998999999999
17.2959 96.440398999999999 19.9876
18.117356999999998 98.350882999999996 18.647751
17.833808999999999 97.219016999999994 19.472971000000001
17.579201000000001 97.411597999999998 17.967199000000001
17.263598999999999 102.58899700000001 18.531700000000001
16.610600000000002 103.44699900000001 18.145599000000001
16.948763 102.228447 16.891961999999999
16.975842 102.79686700000001 17.638100000000001
17.755300999999999 100.856003 17.321199
17.934695999999999 101.340508 18.495338
18.246168000000001 99.917274000000006 18.860678
17.996300000000002 99.701499999999996 17.593499999999999
12.264699999999999 101.121002 13.7531
12.155982 101.666496 15.589627999999999
12.676399999999999 102.593002 15.5191
12.646599999999999 101.710999 13.7037
11.5021 100.593002 15.6509
11.9992 100.26599899999999 13.7171
11.555999999999999 99.540497000000002 13.713100000000001
11.2247 98.705298999999997 16.016500000000001
11.229100000000001 99.683197000000007 15.784700000000001
11.321400000000001 98.715698000000003 13.804399999999999
11.321999999999999 97.872497999999993 14.016500000000001
11.879799999999999 96.963097000000005 16.615801000000001
11.482900000000001 97.690697 16.361401000000001
11.561999999999999 97.028603000000004 14.332800000000001
11.944100000000001 96.375900000000001 14.5983
13.1654 96.220900999999998 16.967400000000001
12.419700000000001 96.533798000000004 16.778400000000001
12.4681 95.917000000000002 14.810600000000001
13.190300000000001 95.586196999999999 15.0685
10.972899999999999 95.822700999999995 11.652900000000001
10.411 94.907302999999999 10.2705
11.484282 95.006836000000007 11.946961999999999
12.1286 94.487899999999996 12.272399999999999
11.404472 92.466080000000005 9.9170160000000003
12.8139 92.891098 11.315799999999999
13.003399999999999 94.122497999999993 12.582800000000001
10.727 97.586601000000002 11.045299999999999
10.1629 97.009399000000002 9.5834899999999994
10.1447 95.941901999999999 9.8868899999999993
10.7049 96.697899000000007 11.3055
11.5922 99.138603000000003 10.8161
11.073700000000001 98.853104000000002 9.2274799999999999
10.470700000000001 98.102599999999995 9.3576999999999995
11.034599999999999 98.478797999999998 10.874599999999999
11.5548 99.678100999999998 9.1915999999999993
11.9739 99.947601000000006 10.802199999999999
12.4977 100.599998 10.8119
12.2384 100.36799600000001 9.2064000000000004
14.3012 102.800003 15.400499999999999
14.3216 101.952003 13.6435
13.44 101.90300000000001 13.6189
13.444000000000001 102.75099899999999 15.388400000000001
14.4604 100.99900100000001 10.9031
14.570600000000001 100.807999 9.3557199999999998
13.3979 100.70700100000001 9.2746200000000005
13.465199999999999 100.916 10.838900000000001
14.0647 92.730698000000004 11.672599999999999
15.3687 92.845000999999996 11.7803
15.2302 94.037803999999994 13.0624
14.0868 93.936501000000007 12.9543
15.105 95.421997000000005 15.4808
15.0829 96.105598000000001 17.210999999999999
14.1142 96.036102 17.1661
14.1069 95.351096999999996 15.386200000000001
16.177199999999999 100.33699799999999 11.125400000000001
16.587399999999999 100.152 9.5771700000000006
15.7613 100.674004 9.4619599999999995
15.4786 100.84200300000001 11.009499999999999
17.310393999999999 99.150063000000003 9.7831130000000002
16.92201 99.292168000000004 11.288678000000001
18.432300999999999 97.668296999999995 10.2624
17.892799 98.197601000000006 11.714600000000001
18.085999999999999 97.362899999999996 11.967700000000001
18.6432 96.677199999999999 10.5616
17.614999999999998 93.693297999999999 11.558999999999999
17.186899 94.795699999999997 12.8306
16.363099999999999 94.292998999999995 13.007300000000001
16.657699999999998 93.102599999999995 11.754099999999999
18.557400000000001 95.589995999999999 10.886799999999999
17.988899 96.385695999999996 12.250999999999999
17.641279000000001 95.434082000000004 12.425412
16.792299 96.135695999999996 15.232900000000001
16.772400000000001 96.829300000000003 16.983899999999998
16.042601000000001 96.425697 17.101998999999999
16.090199999999999 95.708504000000005 15.383699999999999
17.457198999999999 97.471496999999999 14.8249
17.563299000000001 98.130202999999995 16.721201000000001
17.260000000000002 97.321404000000001 16.873899000000002
17.1647 96.706199999999995 15.027100000000001
17.408756 99.310417000000001 14.434134
17.490998999999999 100.246002 16.277799999999999
17.670200000000001 99.250397000000007 16.503799000000001
17.5641 98.450301999999994 14.6051
15.876957000000001 101.394226 13.856826999999999
16.873932 101.152878 16.004854000000002
15.206300000000001 102.74400300000001 15.565200000000001
15.943 102.41100299999999 15.716100000000001
15.2423 101.86799600000001 13.7912
18.635446999999999 99.591392999999997 8.2235180000000003
19.240175000000001 97.933341999999996 8.5899180000000008
18.066504999999999 100.448639 8.0359429999999996
17.334654 101.143135 7.8361369999999999
16.130381 101.55476400000001 7.6141670000000001
13.960269 101.490021 7.3531560000000002
13.551885 101.400215 7.7081920000000004
11.791535 101.22107699999999 7.3935279999999999
10.777233000000001 100.683098 7.4221180000000002
10.1065 99.807404000000005 7.4325799999999997
10.242599999999999 99.776802000000004 7.7803800000000001
9.6558410000000006 98.587433000000004 7.6807499999999997
9.4292499999999997 97.006500000000003 7.8687699999999996
9.5038400000000003 97.063400000000001 8.2548600000000008
9.4154230000000005 95.591155999999998 8.3632229999999996
9.6690290000000001 94.219513000000006 8.8106100000000005
10.286522 93.099838000000005 9.1880659999999992
11.2859 92.216498999999999 9.4552099999999992
12.478213999999999 91.776381999999998 9.8049370000000007
14.031726000000001 91.684691999999998 9.9844519999999992
15.506126 91.801575 10.071709999999999
17.012018000000001 92.118645000000001 10.042348
18.153922999999999 92.795310999999998 9.8883270000000003
18.978745 93.910751000000005 9.6403610000000004
19.384947 95.071678000000006 9.3187239999999996
19.465447999999999 96.520004 8.96678
-15.802676 97.300765999999996 31.289413
-15.7636 97.236098999999996 38.374599000000003
-15.143000000000001 96.702202 38.394798000000002
-15.22709 96.817588999999998 31.709499000000001
-14.661799999999999 103.43499799999999 38.271099
-14.766500000000001 103.297997 34.235298
-14.2471 103.777 34.209099000000002
-14.139099999999999 104.00900300000001 38.243198
-14.416883 96.487724 37.673316999999997
-13.644299999999999 96.439301 38.393599999999999
-13.7128 96.528000000000006 34.696399999999997
-12.206016999999999 97.160758999999999 35.789290999999999
-13.024626 96.763756000000001 31.623638
-12.8573 96.619101999999998 38.385899000000002
-11.530725 97.925735000000003 36.723529999999997
-11.197989 98.782753 35.960380999999998
-11.3177 100.67600299999999 34.284199000000001
-11.151 99.722397000000001 34.336201000000003
-11.1144 99.786102 38.274501999999998
-11.321099999999999 100.71700300000001 38.258301000000003
-12.149547999999999 102.430313 32.177120000000002
-11.9255 101.578003 34.282200000000003
-11.965299999999999 101.55300099999999 38.246200999999999
-12.1691 102.42600299999999 38.243899999999996
-13.459300000000001 104.189003 38.218398999999998
-13.555099999999999 103.959 34.184199999999997
-12.892200000000001 103.93699599999999 34.175899999999999
-12.8185 104.16300200000001 38.215198999999998
-12.2851 103.716003 34.186400999999996
-11.9899 103.225998 34.210999000000001
-11.9322 103.345001 38.255401999999997
-12.215199999999999 103.903999 38.238300000000002
-16.268709000000001 98.069839000000002 36.152107000000001
-16.574674999999999 98.987183000000002 35.879826000000001
-15.4152 101.556999 38.258201999999997
-15.5382 101.601997 34.297600000000003
-15.083328 102.503479 30.613682000000001
-14.861000000000001 102.40799699999999 38.254902000000001
-16.696821 99.916152999999994 34.741501
-16.373438 100.791656 35.728003999999999
-13.511568 96.311104 44.552363999999997
-14.24901 96.367744000000002 44.457973000000003
-12.722265999999999 95.623901000000004 46.586891000000001
-11.7384 96.126998999999998 46.781199999999998
-11.807600000000001 96.498099999999994 45.448700000000002
-12.7119 96.022696999999994 45.306399999999996
-9.7786600000000004 98.010802999999996 47.477901000000003
-10.208500000000001 98.307700999999994 45.881999999999998
-10.7315 97.360298 45.698501999999998
-10.4573 97.067595999999995 47.152698999999998
-10.101201 99.137703000000002 47.680804999999999
-10.611774 99.884743 46.014305
-15.8919 96.782096999999993 45.492598999999998
-15.991300000000001 96.472899999999996 46.819800999999998
-14.937976000000001 96.527801999999994 44.641651000000003
-17.3596 98.872803000000005 45.871799000000003
-17.796499000000001 98.699402000000006 47.475200999999998
-17.172899000000001 97.597999999999999 47.158999999999999
-16.889700000000001 97.783501000000001 45.708500000000001
-16.625298999999998 101.00900300000001 46.426399000000004
-16.863399999999999 101.029999 48.316898000000002
-17.657499000000001 99.769997000000004 47.779201999999998
-17.273099999999999 99.897300999999999 46.049500000000002
-15.182700000000001 104.223 18.988800000000001
-15.91282 103.92948199999999 19.176424000000001
-13.537964000000001 104.191399 18.907399999999999
-14.3842 104.30300099999999 18.886800999999998
-11.9331 103.579002 18.932500999999998
-12.5907 103.95500199999999 18.844298999999999
-11.35394 102.79733299999999 19.240725000000001
-10.419995 99.711067 19.821003000000001
-10.530326000000001 101.094376 18.940617
-11.2692 96.9422 21.086399
-10.774699999999999 98.227699000000001 20.786200000000001
-12.976900000000001 95.8386 21.2348
-11.9983 96.260802999999996 21.172999999999998
-15.336 95.638901000000004 21.286501000000001
-14.1861 95.588898 21.287001
-17.2516 96.537903 21.211200999999999
-16.397099999999998 95.992301999999995 21.228200999999999
-18.223562000000001 98.347954000000001 20.680313000000002
-17.855399999999999 97.345200000000006 21.225000000000001
-17.204599000000002 102.614998 19.720600000000001
-16.520201 103.46399700000001 19.354299999999999
-17.923300000000001 101.41999800000001 20.235201
-18.27 99.9739 20.6938
-9.5704899999999995 97.872703999999999 49.188599000000004
-11.7065 95.827399999999997 48.4529
-10.001899999999999 100.329002 50.096499999999999
-9.5985600000000009 98.846198999999999 49.596401
-10.963619 103.728729 51.282325999999998
-10.6473 102.378998 50.865600999999998
-11.241775000000001 101.947731 46.761814000000001
-11.719585 104.552223 47.623565999999997
-11.697900000000001 105.665001 51.403998999999999
-11.211499999999999 104.987999 51.364398999999999
-11.521000000000001 104.887001 49.780299999999997
-11.9719 105.616997 49.998100000000001
-12.1069 105.30300099999999 47.851298999999997
-11.9703 103.82399700000001 42.746299999999998
-11.8934 104.043999 45.368400999999999
-12.192299999999999 104.716003 45.446097999999999
-12.2279 104.48699999999999 42.783099999999997
-11.7364 101.73400100000001 45.006900999999999
-11.9999 102.866997 45.199001000000003
-12.2217 102.697998 42.668700999999999
-12.0082 101.67600299999999 42.573898
-10.8292 99.666602999999995 44.682098000000003
-11.1092 100.672997 44.809699999999999
-11.334199999999999 100.77600099999999 42.487800999999997
-11.069900000000001 99.814301 42.442599999999999
-11.1213 97.785797000000002 44.537399000000001
-10.76 98.705703999999997 44.617297999999998
-11.020799999999999 98.839995999999999 42.420200000000001
-11.3254 97.939400000000006 42.400100999999999
-12.7089 96.462997000000001 44.363602
-11.9122 96.926201000000006 44.438201999999997
-11.986499999999999 97.099602000000004 42.370800000000003
-12.7262 96.598800999999995 42.359402000000003
-11.898618000000001 98.068802000000005 25.468814999999999
-11.799099999999999 97.829597000000007 30.9389
-11.4282 98.657996999999995 30.763598999999999
-11.457065999999999 98.973228000000006 25.242201000000001
-12.3957 97.173203000000001 31.116800000000001
-12.467832 97.405640000000005 25.659229
-13.170878 96.983054999999993 25.780539999999998
-11.2781 99.702697999999998 27.1707
-11.27 99.611503999999996 30.557600000000001
-11.4008 100.614998 30.472798999999998
-11.3917 100.704002 27.02
-11.8832 101.719002 26.9466
-11.947100000000001 101.606003 30.511101
-12.140499999999999 102.524002 26.882601000000001
-12.1709 103.114998 26.813700000000001
-12.0625 103.185997 30.388300000000001
-12.3759 103.64099899999999 30.332100000000001
-12.5482 103.488998 26.779599999999999
-11.938700000000001 103.343002 20.855
-12.70609 103.481392 23.334565999999999
-11.416088 102.604401 21.061447000000001
-10.587199999999999 100.862999 21.547599999999999
-10.5001 99.678901999999994 21.938998999999999
-10.8653 98.462997000000001 22.275801000000001
-11.396800000000001 97.369003000000006 22.495999999999999
-12.0844 96.616095999999999 22.566199999999998
-13.030900000000001 96.138496000000004 22.640799999999999
-12.809977999999999 105.944176 51.402842999999997
-13.288500000000001 105.924004 49.973700999999998
-13.3194 105.654999 47.822600999999999
-12.6966 105.605003 47.842700999999998
-12.612399999999999 105.86199999999999 50.001998999999998
-12.7593 104.96700300000001 45.438301000000003
-13.367800000000001 105.011002 45.449902000000002
-13.413 104.78800200000001 42.793799999999997
-12.8019 104.748001 42.774600999999997
-13.6654 103.886002 30.349701
-13.8599 103.727997 26.812798999999998
-13.192600000000001 103.693001 26.781099000000001
-12.9955 103.856003 30.329799999999999
-14.299300000000001 104.00900300000001 20.883600000000001
-15.314399999999999 95.942902000000004 22.749200999999999
-14.218 95.895302000000001 22.7271
-14.663399999999999 96.723701000000005 28.100100000000001
-14.4983 96.573402000000002 31.315200999999998
-13.769399999999999 96.553000999999995 31.282399999999999
-14.018102000000001 96.767403000000002 25.795967000000001
-14.3172 96.452102999999994 42.367198999999999
-13.5419 96.433800000000005 42.353901
-13.932237000000001 95.029182000000006 48.911724
-17.116399999999999 96.880500999999995 22.693199
-16.2927 96.290298000000007 22.706900000000001
-18.128599000000001 98.772696999999994 22.579201000000001
-17.770399000000001 97.717399999999998 22.708200000000001
-17.807500999999998 101.35900100000001 21.893298999999999
-18.169701 100.095001 22.3034
-16.377001 103.216003 21.144600000000001
-17.070499000000002 102.44899700000001 21.414100999999999
-15.0595 103.905998 20.9818
-14.867800000000001 103.27600099999999 30.448
-15.0383 103.24900100000001 26.926300000000001
-14.542408999999999 103.59371899999999 27.166391000000001
-15.6046 101.674004 30.535601
-15.8489 101.91100299999999 27.043199999999999
-15.3393 102.66300200000001 26.946199
-16.648099999999999 99.818100000000001 30.714300000000001
-16.816299000000001 100.012001 27.425301000000001
-16.561800000000002 100.99900100000001 27.224299999999999
-16.399099 100.792 30.606999999999999
-15.967000000000001 97.466697999999994 27.999300000000002
-15.3935 96.985900999999998 28.091498999999999
-16.467400000000001 98.853699000000006 30.899099
-16.177401 98.014801000000006 31.079901
-16.3813 98.169701000000003 27.842500999999999
-16.665800000000001 99.024101000000002 27.641000999999999
-15.6934 97.224800000000002 42.445202000000002
-15.688000000000001 97.103897000000003 44.511799000000003
-15.041700000000001 96.670402999999993 42.398398999999998
-16.551600000000001 99.071601999999999 42.543399999999998
-16.758199999999999 99.035697999999996 44.723801000000002
-16.4163 98.059303 44.643002000000003
-16.257299 98.132796999999997 42.521000000000001
-16.221700999999999 100.977997 42.547001000000002
-16.322299999999998 100.986 44.880797999999999
-16.724501 100.008003 44.760899000000002
-16.573399999999999 100.056999 42.528300999999999
-14.847200000000001 103.014999 45.288898000000003
-15.438499999999999 101.92600299999999 45.0961
-15.3217 101.74299600000001 42.610802
-14.7746 102.746002 42.7117
-14.010300000000001 104.849998 45.478298000000002
-14.530569 104.25262499999999 45.418239999999997
-14.069100000000001 104.58699799999999 42.834800999999999
-14.604827 105.260246 50.088042999999999
-14.565300000000001 104.827003 47.618099000000001
-13.9785 105.50299800000001 47.785499999999999
-14.152240000000001 105.903503 51.333857999999999
-14.8619 105.260513 51.495196999999997
-15.4788 102.44699900000001 49.065398999999999
-15.718999999999999 102.339996 46.959099000000002
-15.0289 103.616997 47.339100000000002
-15.7722 102.778999 51.035300999999997
-16.959999 100.986 50.258099000000001
-17.628799000000001 99.542998999999995 49.794601
-17.818398999999999 98.554901000000001 49.400500999999998
-17.389600999999999 99.233199999999997 24.287399000000001
-17.065200999999998 99.307297000000005 25.370000999999998
-16.815200999999998 98.437697999999997 25.511399999999998
-17.091100999999998 98.285399999999996 24.419701
-17.139664 100.36367 24.854517000000001
-16.755924 101.27668799999999 24.827698000000002
-15.701551 102.739746 24.421773999999999
-15.486991 103.32196 23.377813
-15.2392 103.328003 24.389399999999998
-14.739777999999999 103.62200900000001 23.715633
-14.080249 103.735519 23.576756
-13.397040000000001 103.685135 23.532833
-12.219526 103.124107 23.691471
-11.88682 102.50202899999999 23.440746000000001
-11.1225 100.96700300000001 23.4389
-11.345800000000001 101.084 24.610201
-11.026300000000001 99.899101000000002 23.739799000000001
-11.194699999999999 100.043999 24.846700999999999
-11.317399999999999 98.843902999999997 23.999300000000002
-11.778600000000001 97.945098999999999 24.206399999999999
-12.363099999999999 97.283400999999998 24.313801000000002
-13.1523 96.838898 24.418199999999999
-14.129099999999999 96.611198000000002 24.509501
-15.0379 96.652000000000001 24.551399
-14.8896 96.786902999999995 25.7075
-15.8543 96.957603000000006 24.517401
-15.650499999999999 97.073195999999996 25.677799
-16.535800999999999 97.491898000000006 24.4727
-16.278998999999999 97.589896999999993 25.617201000000001
-16.123663000000001 103.50741600000001 16.936163000000001
-15.33404 103.910568 16.827206
-15.281000000000001 104.24900100000001 17.669701
-16.006398999999998 103.960999 17.864699999999999
-14.406102000000001 103.965324 16.654084999999998
-13.449438000000001 103.903519 16.659132
-14.4315 104.32399700000001 17.555799
-13.527100000000001 104.226997 17.512198999999999
-11.9862 102.85700199999999 16.387799999999999
-11.912682999999999 103.536751 17.367063999999999
-12.518556999999999 103.54774500000001 16.607966999999999
-12.5946 103.960999 17.5366
-11.304152 102.45450599999999 17.355945999999999
-11.441449 101.798996 16.471250999999999
-11.313826000000001 102.74659699999999 18.040457
-10.675694 100.72024500000001 17.514858
-10.583582 99.487251000000001 17.994029999999999
-10.794904000000001 98.078102000000001 19.022252999999999
-11.1069 97.924400000000006 17.593299999999999
-11.572100000000001 96.987099000000001 17.879200000000001
-11.2981 96.734200000000001 18.956800000000001
-11.225099999999999 96.724297000000007 19.904699000000001
-12.0182 96.174400000000006 19.089898999999999
-12.216900000000001 96.490402000000003 18.031700000000001
-13.070499999999999 96.157700000000006 18.149999999999999
-12.9701 95.819396999999995 19.1675
-12.9483 95.739600999999993 20.081800000000001
-11.966200000000001 96.121002000000004 20.018899999999999
-14.120100000000001 95.941802999999993 18.243601000000002
-15.1717 96.010300000000001 18.247999
-15.2765 95.657996999999995 19.177299000000001
-14.125 95.586303999999998 19.198699999999999
-14.147399999999999 95.496596999999994 20.110700999999999
-15.3238 95.556800999999993 20.0947
-17.006799999999998 96.829200999999998 18.055
-17.238899 96.537200999999996 19.032499000000001
-16.375999 96.030602000000002 19.098400000000002
-16.195999 96.367401000000001 18.148099999999999
-16.4284 95.920501999999999 20.025998999999999
-17.2959 96.440398999999999 19.9876
-18.120363000000001 98.349968000000004 18.679566999999999
-17.816465000000001 97.239586000000003 19.270779000000001
-17.297516000000002 97.383301000000003 16.893422999999999
-17.263598999999999 102.58899700000001 18.531700000000001
-16.610600000000002 103.44699900000001 18.145599000000001
-16.892513000000001 102.361687 16.928284000000001
-16.935908999999999 102.853844 17.619577
-17.88344 101.162544 17.955486000000001
-18.236678999999999 99.872009000000006 18.778503000000001
-17.996300000000002 99.701499999999996 17.593499999999999
-17.945601 101.396004 19.025200000000002
-12.264699999999999 101.121002 13.7531
-12.3119 102.068001 15.6182
-12.676399999999999 102.593002 15.5191
-12.646599999999999 101.710999 13.7037
-11.5021 100.593002 15.6509
-11.9861 101.334999 15.6236
-11.9992 100.26599899999999 13.7171
-11.555999999999999 99.540497000000002 13.713100000000001
-11.2247 98.705298999999997 16.016500000000001
-11.229100000000001 99.683197000000007 15.784700000000001
-11.321400000000001 98.715698000000003 13.804399999999999
-11.321999999999999 97.872497999999993 14.016500000000001
-11.879799999999999 96.963097000000005 16.615801000000001
-11.482900000000001 97.690697 16.361401000000001
-11.561999999999999 97.028603000000004 14.332800000000001
-11.944100000000001 96.375900000000001 14.5983
-13.1654 96.220900999999998 16.967400000000001
-12.419700000000001 96.533798000000004 16.778400000000001
-12.4681 95.917000000000002 14.810600000000001
-13.190300000000001 95.586196999999999 15.0685
-10.972899999999999 95.822700999999995 11.652900000000001
-10.411 94.907302999999999 10.2705
-10.296913999999999 93.087868 9.1979780000000009
-11.4483 95.086799999999997 11.975199999999999
-12.1286 94.487899999999996 12.272399999999999
-11.778700000000001 93.305199000000002 10.9749
-12.8139 92.891098 11.315799999999999
-13.003399999999999 94.122497999999993 12.582800000000001
-10.727 97.586601000000002 11.045299999999999
-10.1629 97.009399000000002 9.5834899999999994
-10.1447 95.941901999999999 9.8868899999999993
-10.7049 96.697899000000007 11.3055
-11.5922 99.138603000000003 10.8161
-11.073700000000001 98.853104000000002 9.2274799999999999
-10.470700000000001 98.102599999999995 9.3576999999999995
-11.034599999999999 98.478797999999998 10.874599999999999
-11.5548 99.678100999999998 9.1915999999999993
-11.9739 99.947601000000006 10.802199999999999
-12.4977 100.599998 10.8119
-12.2384 100.36799600000001 9.2064000000000004
-14.3012 102.800003 15.400499999999999
-14.3216 101.952003 13.6435
-13.44 101.90300000000001 13.6189
-13.444000000000001 102.75099899999999 15.388400000000001
-14.4604 100.99900100000001 10.9031
-14.570600000000001 100.807999 9.3557199999999998
-13.3979 100.70700100000001 9.2746200000000005
-13.465199999999999 100.916 10.838900000000001
-14.0647 92.730698000000004 11.672599999999999
-15.3687 92.845000999999996 11.7803
-15.2302 94.037803999999994 13.0624
-14.0868 93.936501000000007 12.9543
-15.105 95.421997000000005 15.4808
-15.0829 96.105598000000001 17.210999999999999
-14.1142 96.036102 17.1661
-14.1069 95.351096999999996 15.386200000000001
-16.177199999999999 100.33699799999999 11.125400000000001
-16.578979 100.162819 9.5519079999999992
-15.7613 100.674004 9.4619599999999995
-15.4786 100.84200300000001 11.009499999999999
-16.804251000000001 99.431717000000006 11.340197
-17.803899999999999 98.525497000000001 9.9524500000000007
-18.432300999999999 97.668296999999995 10.2624
-17.892799 98.197601000000006 11.714600000000001
-18.085999999999999 97.362899999999996 11.967700000000001
-18.6432 96.677199999999999 10.5616
-17.614999999999998 93.693297999999999 11.558999999999999
-17.186899 94.795699999999997 12.8306
-16.363099999999999 94.292998999999995 13.007300000000001
-16.657699999999998 93.102599999999995 11.754099999999999
-18.557400000000001 95.589995999999999 10.886799999999999
-17.988899 96.385695999999996 12.250999999999999
-17.640699000000001 95.546501000000006 12.5204
-18.165400000000002 94.609397999999999 11.197699999999999
-16.792299 96.135695999999996 15.232900000000001
-16.772400000000001 96.829300000000003 16.983899999999998
-16.042601000000001 96.425697 17.101998999999999
-16.090199999999999 95.708504000000005 15.383699999999999
-17.457198999999999 97.471496999999999 14.8249
-17.563299000000001 98.130202999999995 16.721201000000001
-17.1647 96.706199999999995 15.027100000000001
-17.412099999999999 99.297698999999994 14.4057
-17.490998999999999 100.246002 16.277799999999999
-17.670200000000001 99.250397000000007 16.503799000000001
-17.5641 98.450301999999994 14.6051
-16.753557000000001 100.169754 14.135624999999999
-16.621037000000001 101.519882 15.928673
-15.206300000000001 102.74400300000001 15.565200000000001
-15.943 102.41100299999999 15.716100000000001
-15.8973 101.425003 13.932700000000001
-15.2423 101.86799600000001 13.7912
-18.750499999999999 99.311995999999994 8.16587
-18.607201 99.317902000000004 8.5200399999999998
-19.144898999999999 97.846703000000005 8.8781199999999991
-19.245701 97.798302000000007 8.4940899999999999
-18.0975 100.389 7.9134700000000002
-17.9587 100.33699799999999 8.2617200000000004
-17.282108000000001 101.17126500000001 7.8256550000000002
-16.144736999999999 101.553123 7.6452980000000004
-13.834541 101.479698 7.3441609999999997
-14.276866 101.449646 7.7778289999999997
-11.787972 101.219414 7.3557439999999996
-10.708273999999999 100.626953 7.4211989999999997
-10.124649 99.876244 7.5514029999999996
-9.6807169999999996 98.684623999999999 7.7000130000000002
-9.4092730000000007 97.142700000000005 7.9692439999999998
-9.4044670000000004 95.660728000000006 8.3623239999999992
-9.660266 94.243767000000005 8.7817519999999991
-11.264981000000001 92.245330999999993 9.5478159999999992
-12.495616 91.781052000000003 9.8388810000000007
-14.018508000000001 91.694702000000007 10.019373
-15.517329 91.803528 10.074782000000001
-16.996199000000001 92.110923999999997 10.037558000000001
-18.178051 92.822104999999993 9.9065159999999999
-18.943026 93.839393999999999 9.6566460000000003
-19.381996000000001 95.059646999999998 9.3443930000000002
-19.465208000000001 96.443481000000006 8.9663009999999996
-3.3589709999999999 108.847275 75.025634999999994
-3.7743220000000002 109.055206 75.545151000000004
-3.9209499999999999 109.976997 85.005095999999995
-4.0233600000000003 110.35900100000001 84.969498000000002
-4.3288869999999999 110.59446 84.766379999999998
-3.8745759999999998 109.425583 75.413094000000001
-4.16235 109.560997 73.847504000000001
-5.1816000000000004 111.530998 84.795096999999998
-4.8451000000000004 110.74900100000001 84.886803
-5.0606559999999998 110.77668 77.102905000000007
-4.7061250000000001 109.786964 74.769981000000001
-2.4974729999999998 117.204132 78.078925999999996
-2.9242789999999999 117.06723 77.326706000000001
-2.4115799999999998 117.41999800000001 84.338402000000002
-2.8358599999999998 117.351997 84.325500000000005
-1.9775400000000001 117.666 84.319503999999995
-1.73614 118.269997 84.234397999999999
-2.2057479999999998 117.312859 75.803741000000002
-2.0848300000000002 117.87400100000001 73.316299000000001
-1.8605 118.149002 78.913498000000004
-1.6512180000000001 108.62200900000001 74.757576
-2.5480230000000001 108.845322 74.290794000000005
-4.5744400000000001 113.579002 73.534698000000006
-4.5671200000000001 114.06999999999999 79.111701999999994
-5.2328099999999997 112.425003 79.192001000000005
-5.27182 111.922997 73.650299000000004
-3.9453299999999998 116.227997 79
-4.1282100000000002 115.83899700000001 73.400702999999993
-3.5161699999999998 116.858002 73.361396999999997
-3.2894000000000001 117.20700100000001 78.959098999999995
-1.346428 119.861664 77.900169000000005
-1.815798 119.20880099999999 78.281265000000005
-0.456071 120.136948 80.611687000000003
-0.470611 120.031998 73.0839
-2.0068000000000001 109.362999 84.929298000000003
-2.97241 109.709999 84.931297000000001
-4.7963300000000002 114.605003 84.519203000000005
-5.3400999999999996 112.96700300000001 84.656897999999998
-3.9502100000000002 116.566002 84.343102000000002
-3.2528299999999999 117.46700300000001 84.280197000000001
-1.2484599999999999 119.851997 84.000504000000006
-0.66812199999999999 108.718002 84.987296999999998
-0.54191400000000001 108.01886 74.048141000000001
0.541439 108.022522 74.129859999999994
3.3587880000000001 108.82976499999999 75.020317000000006
3.76431 108.994843 75.043364999999994
3.57226 109.75900300000001 84.993499999999997
3.9209499999999999 109.976997 85.005095999999995
4.0233600000000003 110.35900100000001 84.969498000000002
