11.304399999999999 94.968497999999997 113.433998
15.8161 99.184898000000004 105.085999
14.178100000000001 104.74700199999999 99.856796000000003
13.0722 102.07199900000001 105.165001
18.706800000000001 95.327797000000004 104.833
29.287201 6.8599100000000002 156.841003
22.363700999999999 92.112899999999996 99.878304
20.170601000000001 97.247596999999999 99.893799000000001
16.044701 86.492500000000007 113.358002
18.273800000000001 87.996002000000004 109.77600099999999
27.1432 5.5845000000000002 143.358002
27.835799999999999 2.3371599999999999 145.02299500000001
28.611601 -0.74038300000000001 147.067993
11.036199999999999 85.870697000000007 117.137001
13.850099999999999 85.802398999999994 115.432999
29.121099000000001 -1.2338499999999999 150.12699900000001
28.285499999999999 11.0098 150.59399400000001
31.228399 1.75465 154.36799600000001
4.4110699999999996 87.219100999999995 119.290001
29.462053000000001 1.8535820000000001 156.13235499999999
30.242032999999999 2.6122679999999998 156.30607599999999
8.3490800000000007 78.231200999999999 119.537003
29.9482 1.0019199999999999 154.08599899999999
30.498884 6.0329680000000003 156.317825
32.390597999999997 -1.36012 151.37399300000001
37.772098999999997 8.2218 152.73599200000001
8.6368200000000002 73.905097999999995 119.148003
5.2986399999999998 75.262398000000005 120.403999
37.012099999999997 1.0154799999999999 144.39799500000001
14.2622 75.985298 116.12400100000001
13.989100000000001 80.953002999999995 116.307999
36.812401000000001 4.7784500000000003 142.942993
36.006115000000001 2.529048 152.534378
14.8352 71.025702999999993 115.067001
36.551079000000001 9.8261749999999992 141.76281700000001
32.821499000000003 12.154 145.86700400000001
19.513999999999999 76.403701999999996 110.23200199999999
18.922999999999998 82.169701000000003 110.38099699999999
37.249198999999997 11.6884 149.92300399999999
37.079399000000002 -0.90899399999999997 145.462006
19.516999999999999 67.174499999999995 107.75700399999999
20.4053 70.852798000000007 109.014
17.571100000000001 70.943603999999993 112.487999
37.800700999999997 -1.0259400000000001 150.580994
23.182898999999999 74.894797999999994 99.724197000000004
22.199498999999999 72.829300000000003 104.262001
36.790199000000001 12.1563 147.74200400000001
22.323098999999999 70.973800999999995 99.065299999999993
21.588301000000001 84.498199 104.833
21.943000999999999 78.216697999999994 104.768997
23.266999999999999 79.879799000000006 99.859099999999998
23.3916 86.164901999999998 99.906197000000006
18.478200999999999 2.2589399999999999 140.470001
21.780899000000002 8.4479199999999999 139.69799800000001
14.3329 1.6263300000000001 157.47099299999999
23.510899999999999 10.5021 145.32899499999999
23.408339999999999 12.030222 147.89498900000001
23.770876000000001 0.159334 147.443512
22.949413 -1.1536919999999999 147.88833600000001
16.205601000000001 -6.1491300000000004 151.23800700000001
18.027100000000001 -6.7826399999999998 148.16099500000001
18.981604000000001 -5.3175530000000002 150.617569
17.564454999999999 -4.1064639999999999 153.27769499999999
18.478529000000002 9.7915010000000002 159.286911
17.745471999999999 15.086062999999999 150.19982899999999
19.844194000000002 3.574732 159.77543600000001
17.944744 12.600042999999999 157.15858499999999
19.730301000000001 12.355 157.216003
18.5413 13.4139 155.65400700000001
25.340399000000001 12.424553 151.51507599999999
23.567716999999998 -0.13252700000000001 157.31054700000001
18.1919 67.607399000000001 81.999900999999994
25.906980999999998 -0.39321299999999998 156.29383899999999
17.405926000000001 -1.136628 156.191101
21.1416 12.2643 142.76100199999999
21.3169 68.650397999999996 94.387801999999994
16.495000999999998 15.962 149.64799500000001
-80.816520999999995 3.7553109999999998 138.07023599999999
-82.135300000000001 3.4114450000000001 137.444321
-78.362457000000006 6.0959110000000001 141.55908199999999
-79.636718999999999 2.8659129999999999 144.15870699999999
-83.863602 -1.1518299999999999 139.091003
-83.935615999999996 -0.55154800000000004 137.783188
-84.792488000000006 -0.31231500000000001 139.44665499999999
-84.385604999999998 0.47400399999999998 139.205521
-84.731667000000002 -0.471082 137.83720400000001
-79.938109999999995 -0.23732 144.31471300000001
17.270499999999998 101.49099699999999 99.940002000000007
-77.729979999999998 -2.0522170000000002 145.28892500000001
-77.189682000000005 -1.5733239999999999 137.888779
-77.406334000000001 -1.6117189999999999 138.98127700000001
-71.299599000000001 -1.294842 142.94482400000001
-71.204802999999998 -1.0551600000000001 144.05600000000001
-71.908501000000001 0.58896800000000005 140.47500600000001
-74.095200000000006 0.931118 140.90299999999999
-74.595703 5.0933099999999998 144.641998
-69.636550999999997 0.194801 145.193939
-75.216576000000003 6.4373040000000001 143.10685699999999
-70.405884 6.3185460000000004 143.032974
-71.791190999999998 6.2088229999999998 144.524811
-73.069098999999994 6.0241499999999997 144.25100699999999
-62.754798999999998 9.5803100000000008 145.97500600000001
-59.899501999999998 10.5069 146.26499899999999
-53.605801 11.4368 146.72099299999999
-53.923901000000001 12.0814 145.16000399999999
-59.913100999999997 10.7994 143.11000100000001
-53.834899999999998 12.1686 143.44399999999999
-62.689098000000001 9.7016600000000004 142.921997
-53.231098000000003 11.1168 141.86000100000001
-63.868099000000001 5.7963800000000001 141.21099899999999
-63.947299999999998 4.9884599999999999 148.00900300000001
-44.138302000000003 1.96638 145.182999
-57.802601000000003 1.8971499999999999 142.39300499999999
-51.681801 1.9930000000000001 142.51800499999999
-55.131999999999998 0.50888500000000003 145.078003
-52.392299999999999 0.68732700000000002 145.53999300000001
-56.680801000000002 6.0922599999999996 150.23100299999999
-53.090899999999998 2.73583 150.26199299999999
-53.968398999999998 6.0872799999999998 150.770004
6.3861699999999999 107.611 87.473099000000005
13.1579 105.317001 82.652901
-56.186199000000002 4.9574999999999996 150.296997
-46.098700999999998 2.1657000000000002 143.733994
-47.930573000000003 3.1002969999999999 150.95114100000001
-47.951599000000002 6.9834399999999999 141.337006
7.5286999999999997 72.336699999999993 74.701796999999999
-45.459499000000001 11.526999999999999 147.13299599999999
-47.849196999999997 12.04599 145.28890999999999
-46.892722999999997 7.3583309999999997 151.38241600000001
-30.348199999999999 11.925000000000001 149.12300099999999
-28.4636 11.573 147.49099699999999
-31.517799 11.3468 151.19700599999999
23.2225 76.647598000000002 87.233101000000005
-30.771099 3.5866400000000001 144.223007
22.350999999999999 74.008399999999995 82.656097000000003
-31.958500000000001 -2.1610299999999998 147.671997
-29.815200999999998 7.0004400000000002 142.20500200000001
21.830998999999998 72.711799999999997 91.343497999999997
-30.136399999999998 5.4347899999999996 142.83000200000001
-32.319499999999998 7.2854799999999997 141.723007
-27.164498999999999 5.6243600000000002 143.38299599999999
7.1462399999999997 104.62400100000001 81.005996999999994
8.5109600000000007 101.74700199999999 77.293899999999994
-27.371400999999999 4.5700000000000003 144.36199999999999
-28.641000999999999 -0.70294000000000001 147.087006
-29.143899999999999 -1.2005300000000001 150.145996
-28.039324000000001 11.1731 150.12785299999999
-32.280399000000003 2.6242999999999999 153.27299500000001
10.192500000000001 102.62400100000001 77.753197
9.43797 108.146004 93.466103000000004
-29.989225000000001 2.054767 155.888733
-30.952202 4.5819720000000004 156.21392800000001
-29.979683000000001 4.7622450000000001 157.02619899999999
12.4381 107.318001 87.988097999999994
11.161899999999999 107.721001 93.764702
13.0989 106.98200199999999 94.007796999999997
-29.769587000000001 7.7939930000000004 156.071854
17.253799000000001 101.459 79.530501999999998
-30.207100000000001 6.66418 156.31100499999999
-32.410499999999999 -1.3208200000000001 151.39999399999999
-37.763699000000003 8.2708600000000008 152.79800399999999
24.0289 87.310997 86.294403000000003
23.555700000000002 82.306197999999995 86.908302000000006
23.658999999999999 82.945899999999995 82.363602
23.814899 87.251801 81.760200999999995
21.6432 95.886200000000002 84.961799999999997
-37.043399999999998 1.0824199999999999 144.44000199999999
22.9709 90.716697999999994 81.290702999999993
-36.837798999999997 4.8483499999999999 142.99400299999999
23.697299999999998 86.916900999999996 95.516197000000005
23.481701000000001 80.882103000000001 95.611098999999996
-36.626998999999998 9.8926999999999996 141.820007
-32.820098999999999 12.2057 145.92300399999999
20.7866 97.901398 94.897400000000005
22.876899999999999 92.623299000000003 95.2286
-37.239100999999998 11.742699999999999 149.99099699999999
21.272099999999998 97.473502999999994 89.824402000000006
-37.014198 4.91988 153.06100499999999
-37.112999000000002 -0.84443699999999999 145.5
-37.821499000000003 -0.97174300000000002 150.61999499999999
-37.310394000000002 12.11735 147.62678500000001
-18.478200999999999 2.2601100000000001 140.470001
-21.783300000000001 8.4501600000000003 139.699005
19.311802 97.652778999999995 80.306327999999993
18.7698 102.024002 89.258499
-14.3329 1.6263300000000001 157.47099299999999
-23.446524 11.700875 147.34522999999999
-23.397023999999998 12.169784999999999 148.24148600000001
18.022300999999999 102.277 94.580298999999997
-23.586599 0.30180200000000001 147.054993
-23.188025 -1.1166039999999999 148.03453099999999
-16.205601000000001 -6.1490299999999998 151.23699999999999
-18.027100000000001 -6.7816099999999997 148.158005
-19.240144999999998 -5.213425 150.41568000000001
-17.467061999999999 -4.1093919999999997 153.31042500000001
4.9177 89.589400999999995 71.991996999999998
-18.455969 9.7762220000000006 159.27238500000001
-17.794167000000002 15.027293 150.21125799999999
-19.830814 3.6026150000000001 159.776093
7.8588699999999996 92.787696999999994 70.105300999999997
-18.533999999999999 12.545500000000001 157.158997
-19.4786 13.703200000000001 151.541
-24.765156000000001 12.557498000000001 150.899216
11.6004 99.930098999999998 62.537998000000002
-24.727848000000002 -0.86240899999999998 156.12361100000001
-22.639574 -1.0054989999999999 156.668915
12.222 100.650002 62.596198999999999
-16.162043000000001 -0.41455799999999998 156.816147
-21.142799 12.267799999999999 142.76400799999999
9.2556600000000007 93.961699999999993 64.343299999999999
-16.493400999999999 15.9619 149.649002
-1.476472 -9.1820629999999994 167.10174599999999
-3.0821670000000001 -8.3536110000000008 168.89125100000001
-5.4348210000000003 -5.6258470000000003 166.773056
-6.2983900000000004 -4.7175799999999999 167.27799999999999
-6.2691299999999996 -5.2305700000000002 168.42700199999999
-3.4548869999999998 -7.8799469999999996 176.72688299999999
9.5758500000000009 87.096198999999999 63.549399999999999
-6.1257520000000003 -6.4502220000000001 175.20773299999999
-6.4604109999999997 -6.4539429999999998 173.87866199999999
-6.8364500000000001 -5.4220800000000002 174.97644
13.3635 83.712303000000006 61.639499999999998
-0.66324499999999997 -8.6148100000000003 180.38800000000001
11.5825 87.760002 59.438701999999999
13.263 86.664703000000003 58.580798999999999
10.1287 93.446197999999995 55.795600999999998
-6.7055999999999996 4.1691599999999998 165.462006
-7.0558930000000002 3.6443219999999998 168.77560399999999
-1.24115 11.7767 178.09399400000001
-1.0826499999999999 11.417199999999999 173.99800099999999
-2.2799 9.8104499999999994 166.77799999999999
-6.1618399999999998 8.8054000000000006 177.330994
12.7743 91.650902000000002 54.467998999999999
-6.0886800000000001 8.4322099999999995 173.87399300000001
-5.5595499999999998 0.087833999999999995 164.80299400000001
-8.8245699999999996 3.5703200000000002 174.21800200000001
10.505599999999999 97.905097999999995 57.936100000000003
-5.7473099999999997 -5.6650299999999998 181.266998
-0.85100200000000004 -1.46957 186.334
-0.99242900000000001 0.782138 186.628998
-1.0509500000000001 7.7771299999999997 185.209
-2.47254 5.4941000000000004 185.891006
-6.1301399999999999 0.87398600000000004 183.64999399999999
-6.1252599999999999 6.9049699999999996 182.54299900000001
11.562099999999999 103.550003 54.506199000000002
-6.6543900000000002 -1.24779 182.23800700000001
12.1037 103.219002 56.805500000000002
-5.1212429999999998 -5.8836570000000004 175.53620900000001
-4.2818300000000002 -4.7285300000000001 169.22700499999999
1.3874150000000001 -9.1663040000000002 167.08784499999999
1.8320259999999999 -9.4865709999999996 169.422394
5.1021419999999997 -5.987152 166.59175099999999
6.2983900000000004 -4.7175799999999999 167.27799999999999
6.2691299999999996 -5.2305700000000002 168.42700199999999
2.1712929999999999 -9.0245979999999992 179.21994000000001
6.0832259999999998 -6.468248 175.23835800000001
6.6056299999999997 -6.1890000000000001 173.89999399999999
6.7340330000000002 -5.4642330000000001 175.86114499999999
6.7055999999999996 4.1691599999999998 165.462006
7.0396599999999996 3.75013 168.692993
0 11.938800000000001 178.162003
0 11.5108 173.942993
0.941222 10.0657 166.75199900000001
6.1618399999999998 8.8054000000000006 177.330994
6.0886800000000001 8.4322099999999995 173.87399300000001
8.8245699999999996 3.5703200000000002 174.21800200000001
5.4693300000000002 -6.4509600000000002 180.395004
5.7473099999999997 -5.6650299999999998 181.266998
0 0.82806900000000006 186.67799400000001
0 7.8490000000000002 185.23199500000001
0.005156 -1.4010860000000001 186.479996
2.47254 5.4941000000000004 185.891006
6.1301399999999999 0.87398600000000004 183.64999399999999
6.1252599999999999 6.9049699999999996 182.54299900000001
6.6543900000000002 -1.24779 182.23800700000001
5.8180199999999997 0.31793900000000003 166.192993
5.1257010000000003 -5.8722789999999998 175.53422499999999
4.2818300000000002 -4.7285300000000001 169.22700499999999
1.45085 -2.47906 159.76300000000001
-0.038503999999999997 -2.905303 161.20718400000001
6.3837299999999999 0.36534699999999998 160.682007
6.45932 6.3110499999999998 164.712006
-6.3837299999999999 0.364811 160.682007
-6.45932 6.3110499999999998 164.712006
9.1171799999999994 -13.6845 134.32699600000001
0 14.326700000000001 135.07200599999999
0 15.0837 138.27499399999999
0 -13.3653 142.895004
5.26938 -13.949 144.615005
5.60832 -11.9107 149.71400499999999
5.3961800000000002 -7.4846899999999996 155.23699999999999
1.5435099999999999 16.529900000000001 146.919006
2.1726200000000002 16.180599000000001 151.01300000000001
0 13.0169 158.66999799999999
7.4615 -14.2034 139.37699900000001
13.118600000000001 -10.1966 135.020004
3.73075 -15.0709 134.932007
18.531798999999999 6.1041800000000004 132.10000600000001
18.5611 8.8071599999999997 131.804001
18.085599999999999 4.0544399999999996 132.770996
17.366301 11.2174 131.996002
15.274100000000001 13.527100000000001 132.52200300000001
10.1389 16.072800000000001 134.13000500000001
6.5288320000000004 -3.4547789999999998 157.45701600000001
16.193398999999999 -0.26021 132.33500699999999
16.4543 2.0788899999999999 133.330994
17.716801 96.419403000000003 54.256999999999998
0.67299799999999999 -5.6086 155.800995
11.353199999999999 -11.8553 135.90299999999999
12.5724 -9.8859499999999993 138.87300099999999
11.209300000000001 -11.2821 138.31399500000001
16.1373 -5.3264100000000001 138.04600500000001
15.4278 -3.6621899999999998 131.962997
12.217162 -12.568251999999999 140.47551000000001
4.8719200000000003 18.1068 138.29299900000001
18.185600000000001 -0.079935000000000006 140.37399300000001
11.121499999999999 17.834199999999999 145.63200399999999
3.1894300000000002 18.126899999999999 146.94399999999999
12.4602 18.432600000000001 143.90299999999999
12.299300000000001 18.297899000000001 145.11599699999999
14.403600000000001 17.7789 143.13600199999999
11.099600000000001 17.718800000000002 143.54499799999999
18.7684 12.007899999999999 135.48199500000001
10.129099999999999 6.1374500000000003 160.503998
8.3637099999999993 -9.0253700000000006 153
9.7779799999999994 -5.9898800000000003 154.93800400000001
18.159400999999999 98.433800000000005 60.416401
8.5539100000000001 -11.249599999999999 149.81100499999999
14.671900000000001 -8.2540499999999994 149.59899899999999
8.7221600000000006 -12.796799999999999 146.662994
19.400700000000001 95.291702000000001 59.326199000000003
18.641399 96.624602999999993 57.134200999999997
12.479699999999999 -12.1008 144.73800700000001
7.72973 18.003401 141.98199500000001
7.7785000000000002 16.057400000000001 157.128006
6.1837799999999996 18.613800000000001 146.432999
7.297555 17.416136000000002 154.14300499999999
6.7421800000000003 18.310699 150.48800700000001
17.975763000000001 11.952481000000001 158.06251499999999
3.9404499999999998 15.550700000000001 130.89700300000001
14.193899999999999 -7.7376100000000001 131.91700700000001
10.9679 -12.3584 131.38400300000001
18.528500000000001 87.662300000000002 58.918900000000001
18.914400000000001 84.551697000000004 61.655898999999998
15.7813 0.14457200000000001 130.746002
13.608700000000001 12.439 129.57899499999999
20.246798999999999 91.422202999999996 60.846801999999997
7.0811099999999998 15.4575 131.317993
-3.0918899999999998 14.0191 158.483002
-9.1171799999999994 -13.6845 134.32699600000001
-5.26938 -13.949 144.615005
-5.0767499999999997 -14.7455 142.878006
-5.60832 -11.9107 149.71400499999999
-5.3961800000000002 -7.4846899999999996 155.23699999999999
-1.5435099999999999 16.529900000000001 146.919006
-2.1726200000000002 16.180599000000001 151.01300000000001
-7.4615 -14.2034 139.37699900000001
-13.118600000000001 -10.1966 135.020004
-3.73075 -15.0709 134.932007
-0.80954899999999996 16.727399999999999 142.32200599999999
-18.531798999999999 6.1041800000000004 132.10000600000001
-18.5611 8.8071599999999997 131.804001
-18.085599999999999 4.0544399999999996 132.770996
-17.366301 11.2174 131.996002
-15.274100000000001 13.527100000000001 132.52200300000001
12.186199999999999 99.713997000000006 75.575798000000006
-10.1389 16.072800000000001 134.13000500000001
-4.2671999999999999 17.278199999999998 134.38699299999999
12.826000000000001 99.160895999999994 70.910697999999996
-6.3910499999999999 -3.5306199999999999 157.45199600000001
-16.193398999999999 -0.26021 132.33500699999999
11.7774 99.005797999999999 70.900902000000002
-16.4543 2.0788899999999999 133.330994
-0.67299799999999999 -5.6086 155.800995
-11.353199999999999 -11.8553 135.90299999999999
-12.5724 -9.8859499999999993 138.87300099999999
16.027699999999999 73.831397999999993 71.510399000000007
-11.209300000000001 -11.2821 138.31399500000001
14.2705 72.523398999999998 74.055999999999997
-12.280773999999999 -12.569706 140.517349
-16.308001000000001 -5.29338 139.283005
-4.8719200000000003 18.1068 138.29299900000001
-18.185600000000001 -0.078911999999999996 140.37399300000001
-11.121499999999999 17.834199999999999 145.63200399999999
-3.1894300000000002 18.126899999999999 146.94399999999999
-12.4602 18.432600000000001 143.90299999999999
-12.299300000000001 18.297899000000001 145.11599699999999
-14.403600000000001 17.7789 143.13600199999999
-11.099600000000001 17.718800000000002 143.54499799999999
-18.7684 12.007899999999999 135.48199500000001
-10.129099999999999 6.1374500000000003 160.503998
11.5924 81.904799999999994 65.910797000000002
-8.3637099999999993 -9.0253700000000006 153
-9.7779799999999994 -5.9898800000000003 154.93800400000001
11.2681 79.188400000000001 69.222801000000004
8.5893599999999992 86.733902 67.065201000000002
-8.5539100000000001 -11.249599999999999 149.81100499999999
-12.7553 -9.3216800000000006 149.570007
-8.7221600000000006 -12.796799999999999 146.662994
-12.479699999999999 -12.1008 144.73800700000001
-7.72973 18.003401 141.98199500000001
-7.7785000000000002 16.057400000000001 157.128006
-6.1837799999999996 18.613800000000001 146.432999
-7.2937580000000004 17.412206999999999 154.17098999999999
-6.7421800000000003 18.310699 150.48800700000001
-17.132959 11.960715 157.765533
-17.501486 12.626383000000001 157.059067
-3.9404499999999998 15.550700000000001 130.89700300000001
-14.193899999999999 -7.7376100000000001 131.91700700000001
6.4789899999999996 95.583602999999997 73.482498000000007
-10.9679 -12.3584 131.38400300000001
-15.7813 0.14457200000000001 130.746002
-15.428127999999999 -3.6632259999999999 131.96435500000001
-13.608700000000001 12.439 129.57899499999999
-7.0811099999999998 15.4575 131.317993
0 8.6579499999999996 119.235001
6.3314300000000001 81.074798999999999 72.848999000000006
8.0979299999999999 8.1621299999999994 117.67800099999999
12.801600000000001 0.28571800000000003 115.712997
12.7309 -2.1318199999999998 115.260002
11.48 4.8018599999999996 116.33899700000001
-3.7868400000000002 9.8103300000000004 118.87400100000001
-8.0979299999999999 8.1621400000000008 117.67800099999999
-12.7309 -2.1317699999999999 115.260002
6.53979 -15.3239 121.539001
13.289300000000001 0.49468699999999999 124.49900100000001
14.0037 -1.4782200000000001 124.780998
13.7575 -6.4258600000000001 123.976997
3.9111899999999999 -16.123698999999998 122.296997
17.645201 95.490798999999996 70.676102
18.283701000000001 95.592903000000007 74.851196000000002
11.219099999999999 -11.458 122.746002
5.9960300000000002 -14.916 119.931
19.165600000000001 94.285004000000001 67.609497000000005
11.5044 5.5703199999999997 120.275002
9.59267 7.1976500000000003 120.387001
12.050599999999999 6.7161200000000001 122.291
-0.020671999999999999 -15.827598 121.158974
12.4651 -6.8733500000000003 117.924004
9.4488000000000003 -12.9689 117.43499799999999
11.989599999999999 -9.5197400000000005 117.900002
-0.012435 -16.37509 117.67392
0 11.412800000000001 129.033997
21.384501 87.812201999999999 70.628699999999995
23.610299999999999 83.473502999999994 77.959502999999998
22.857599 85.414398000000006 74.155997999999997
0 8.7752800000000004 121.736
0.026395999999999999 -16.027215999999999 130.183853
11.392200000000001 -11.6069 126.004997
19.2285 81.084800999999999 64.905700999999993
20.122 77.881698999999998 68.405799999999999
5.5034700000000001 12.5893 125.224998
9.1269299999999998 -12.8696 113.932999
5.09626 -16.094801 113.724998
-6.53979 -15.323700000000001 121.539001
21.608499999999999 81.293296999999995 69.365898000000001
22.969298999999999 74.879204000000001 77.523003000000003
-13.289300000000001 0.49468699999999999 124.49900100000001
-14.0037 -1.4782200000000001 124.780998
-13.7575 -6.4258600000000001 123.976997
-11.219099999999999 -11.4579 122.746002
-11.5044 5.5703199999999997 120.275002
20.806699999999999 71.978499999999997 76.784103000000002
-9.59267 7.1976599999999999 120.387001
-12.050599999999999 6.7161200000000001 122.291
-12.4651 -6.8732100000000003 117.924004
-12.6358 0.038109999999999998 117.878998
-9.4488000000000003 -12.9686 117.43499799999999
18.740100999999999 96.073997000000006 76.763000000000005
-11.989599999999999 -9.5195399999999992 117.900002
19.662099999999999 91.662497999999999 2.5500400000000001
17.099299999999999 93.571601999999999 2.42767
-3.7234400000000001 -15.650499999999999 126.30300099999999
17.323098999999999 89.463997000000006 2.49451
-11.392200000000001 -11.6069 126.004997
-5.2035499999999999 11.1069 123.628998
-5.5034700000000001 12.589399999999999 125.224998
-1.2923500000000001 11.7088 128.526993
10.9672 89.823798999999994 2.6274199999999999
-9.1269299999999998 -12.869199999999999 113.932999
-3.22844 -16.636199999999999 113.689003
9.3331300000000006 92.124297999999996 2.7602199999999999
-11.302 4.8354999999999997 118.29499800000001
10.1974 -10.9275 108.601997
5.4815199999999997 -15.442399999999999 101.91999800000001
10.064881 98.476134999999999 2.9525800000000002
7.6736500000000003 -13.5296 103.912003
12.321199999999999 -6.5217499999999999 112.964996
12.928858999999999 97.386336999999997 2.6205940000000001
2.28966 -13.638500000000001 86.787803999999994
1.6191 -15.672499999999999 95.622596999999999
6.2179200000000003 -13.123900000000001 86.942397999999997
9.5219500000000004 -13.7256 94.100303999999994
14.5426 -9.7607499999999998 95.996498000000003
18.239000000000001 99.126503 2.8305899999999999
12.4017 -10.2271 100.18499799999999
13.5794 -8.8740500000000004 102.917
15.115600000000001 -5.0773400000000004 101.637001
13.816000000000001 -4.3729300000000002 107.360001
13.791600000000001 -0.040322999999999998 110.496002
14.5426 1.8323 107.897003
12.860099999999999 3.67252 113.50299800000001
11.897 7.6063799999999997 112.601997
3.83073 12.5123 116.325996
11.426299999999999 -10.9856 104.360001
8.5904799999999994 -13.975099999999999 98.921302999999995
10.4315 -11.9848 95.837196000000006
11.0045 -10.9169 97.723297000000002
12.089600000000001 -12.225300000000001 91.302299000000005
-10.1974 -10.927300000000001 108.601997
-9.2707999999999995 -11.5952 106.860001
-3.82341 -15.9754 101.414001
-6.7446099999999998 -14.786099999999999 102.64299800000001
-12.321199999999999 -6.5216200000000004 112.964996
-2.28966 -13.638500000000001 86.787803999999994
-1.6191 -15.6724 95.622596999999999
-6.2179200000000003 -13.123900000000001 86.942397999999997
-9.5219500000000004 -13.7256 94.100303999999994
-14.5426 -9.7607499999999998 95.996498000000003
-12.4017 -10.2271 100.18499799999999
-13.5794 -8.8740400000000008 102.917
-15.115600000000001 -5.0773400000000004 101.637001
-13.816000000000001 -4.3729300000000002 107.360001
-13.791600000000001 -0.040322999999999998 110.496002
-14.5426 1.8323 107.897003
-12.860099999999999 3.67252 113.50299800000001
-11.897 7.6063799999999997 112.601997
-3.83073 12.5123 116.325996
-8.5904799999999994 -13.975 98.921402
-10.4315 -11.9848 95.837196000000006
-11.0045 -10.9169 97.723297000000002
-12.089600000000001 -12.225300000000001 91.302299000000005
5.8984899999999998 -15.308199999999999 105.24900100000001
-5.8984899999999998 -15.308 105.24900100000001
-9.2690640000000002 10.946208 5.7680230000000003
-13.368278999999999 10.766258000000001 5.8363060000000004
-13.6014 18.121901000000001 10.2936
-17.232201 14.648999999999999 1.5930599999999999
-13.7843 13.1639 -0.507988
-8.8367599999999999 13.144399999999999 -0.50576699999999997
-7.5102700000000002 13.7818 0.41775299999999999
-8.2734900000000007 19.431101000000002 8.9655000000000005
-13.2113 18.255699 5.5583999999999998
-11.206899999999999 18.488600000000002 5.8472900000000001
-13.0771 5.5357200000000004 36.804901000000001
-12.321199999999999 6.3878199999999996 38.120499000000002
-11.5288 6.6379099999999998 38.091900000000003
-9.7877399999999994 5.4960399999999998 36.792599000000003
-14.2281 2.86313 35.908901
-12.2578 -0.165162 35.972698000000001
-11.4824 -0.47390399999999999 35.839297999999999
-9.6219300000000008 1.3108 35.297500999999997
-12.7723 6.0206799999999996 34.774700000000003
-13.0406 7.2209500000000002 27.7255
-10.326599999999999 8.0470900000000007 27.714500000000001
-10.214499999999999 6.0471300000000001 34.738498999999997
-12.3066 -2.7830300000000001 42.510601000000001
-12.4115 -1.96448 39.164799000000002
-14.1281 4.9118199999999996 27.538699999999999
-13.9086 5.49566 21.212098999999998
-10.287599999999999 4.45723 20.882401000000002
-10.6729 3.286 26.766199
-8.6246200000000002 -0.629305 39.215899999999998
-9.7340900000000001 -2.7343600000000001 42.476700000000001
-7.7638699999999998 1.51407 44.881100000000004
-9.2446420000000007 6.2986409999999999 42.568497000000001
-12.5578 6.10839 43.195801000000003
-13.996717 4.9663579999999996 42.503307
-10.91774 -1.4453819999999999 48.248474000000002
-12.360200000000001 -1.14005 48.378700000000002
-19.2195 10.600300000000001 69.912903
-17.512599999999999 2.39845 70.216599000000002
-18.334299000000001 13.2027 69.692595999999995
-16.293399999999998 14.0116 62.535300999999997
-14.1183 14.052199999999999 58.708801000000001
-19.229199999999999 9.7926199999999994 65.764503000000005
-18.485499999999998 12.0718 64.267998000000006
-18.724501 5.3475299999999999 67.060501000000002
-18.436700999999999 4.2271000000000001 64.084701999999993
-17.917400000000001 2.6786400000000001 64.177902000000003
-10.451000000000001 1.60494 65.685997
-11.879899999999999 0.55899699999999997 66.431899999999999
-13.0235 -0.110919 63.7575
-13.6526 -0.247166 69.437102999999993
-5.8765400000000003 13.168100000000001 64.401604000000006
-7.1250099999999996 14.9259 64.432700999999994
-15.588699999999999 15.6685 67.266800000000003
-6.4300600000000001 12.042199999999999 59.324401999999999
-5.6473300000000002 7.3851000000000004 66.584701999999993
-5.2254899999999997 8.5617800000000006 65.961501999999996
-3.4527800000000002 76.680396999999999 74.875
-6.1155099999999996 7.1485000000000003 64.472099
-1.2972300000000001 81.154799999999994 75.138298000000006
-6.4471299999999996 6.0823600000000004 66.808295999999999
-13.679399999999999 10.6434 51.6404
-6.3861699999999999 107.611 87.473099000000005
-13.1579 105.317001 82.652901
-16.295798999999999 11.588200000000001 56.063599000000004
-17.176100000000002 5.1831399999999999 54.728298000000002
-18.392900000000001 7.0059399999999998 58.773997999999999
-15.127800000000001 -0.050209999999999998 56.341099
-7.5286999999999997 72.336699999999993 74.701796999999999
-14.2866 0.116981 51.606299999999997
-8.7124000000000006 6.87242 48.230300999999997
-8.0808599999999995 4.9632100000000001 49.436199000000002
-10.2681 -0.33093400000000001 56.449001000000003
-9.3902800000000006 0.30508800000000003 56.365699999999997
-6.1520799999999998 8.4760399999999994 57.368301000000002
-23.2225 76.647598000000002 87.233101000000005
-11.3581 -0.39634999999999998 60.387900999999999
-22.350999999999999 74.008399999999995 82.656097000000003
-17.778400000000001 -2.5075599999999998 77.106003000000001
-20.155799999999999 -0.249615 86.859397999999999
-21.830998999999998 72.711799999999997 91.343497999999997
-20.336300000000001 0.46986099999999997 86.449798999999999
-19.655899000000002 -2.2227899999999998 81.625504000000006
-19.877800000000001 17.248100000000001 82.399696000000006
-7.1462399999999997 104.62400100000001 81.005996999999994
-8.5109600000000007 101.74700199999999 77.293899999999994
-17.358999000000001 17.595300999999999 77.572800000000001
-12.926 18.073799000000001 72.755302
-10.499193 18.005913 70.805449999999993
-11.404400000000001 -6.2502500000000003 73.666602999999995
-11.8604 -4.1128299999999998 72.094100999999995
-10.192500000000001 102.62400100000001 77.753197
-9.43797 108.146004 93.466103000000004
-20.165600000000001 15.598000000000001 77.935897999999995
-20.341100999999998 10.6843 73.878403000000006
-19.136600000000001 4.00528 72.184303
-12.4381 107.318001 87.988097999999994
-11.161899999999999 107.721001 93.764702
-13.0989 106.98200199999999 94.007796999999997
-16.756701 0.19362699999999999 73.240195999999997
-17.253799000000001 101.459 79.530501999999998
-7.7565499999999998 17.185400000000001 67.881500000000003
-21.335999999999999 2.0828500000000001 78.440804
-12.9772 19.759198999999999 71.894301999999996
-24.0289 87.310997 86.294403000000003
-23.555700000000002 82.306197999999995 86.908302000000006
-23.658999999999999 82.945899999999995 82.363602
-23.814899 87.251801 81.760200999999995
-21.6432 95.886200000000002 84.961799999999997
-19.004899999999999 19.261800999999998 79.482596999999998
-22.9709 90.716697999999994 81.290702999999993
-8.9391700000000007 -2.49566 69.303901999999994
-23.697299999999998 86.916900999999996 95.516197000000005
-23.481701000000001 80.882103000000001 95.611098999999996
-4.16479 14.0915 66.453102000000001
-18.666 -0.89276299999999997 76.042502999999996
-20.7866 97.901398 94.897400000000005
-22.876899999999999 92.623299000000003 95.2286
-22.677098999999998 7.65266 82.9589
-21.272099999999998 97.473502999999994 89.824402000000006
-22.216298999999999 12.781000000000001 84.098395999999994
-5.223516 5.0446080000000002 67.696021999999999
-14.1525 -6.24533 74.770202999999995
-6.0886800000000001 18.979099000000001 65.161102
9.2709790000000005 10.945202 5.7682599999999997
13.369081 10.767471 5.8343420000000004
-18.764299000000001 98.710402999999999 80.133598000000006
13.6014 18.121901000000001 10.2936
-18.7698 102.024002 89.258499
17.232201 14.648999999999999 1.5930599999999999
13.7843 13.1639 -0.507988
8.8367599999999999 13.144399999999999 -0.50576699999999997
-18.022300999999999 102.277 94.580298999999997
7.5102700000000002 13.7818 0.41775299999999999
7.0299100000000001 18.2547 7.7930799999999998
13.2113 18.255699 5.5583999999999998
11.206899999999999 18.488600000000002 5.8472900000000001
13.0771 5.5357200000000004 36.804901000000001
-4.9177 89.589400999999995 71.991996999999998
12.292 6.4925199999999998 37.039299
11.5288 6.6379099999999998 38.091900000000003
9.7877399999999994 5.4960399999999998 36.792599000000003
-7.8588699999999996 92.787696999999994 70.105300999999997
14.2281 2.86313 35.908901
12.2578 -0.165162 35.972698000000001
11.4824 -0.47390399999999999 35.839297999999999
-11.555973 99.853095999999994 62.566589
8.8830899999999993 2.8369399999999998 35.872397999999997
12.7723 6.0206799999999996 34.774700000000003
-12.222 100.650002 62.596198999999999
13.0406 7.2209500000000002 27.7255
10.046200000000001 7.3202499999999997 27.586599
-9.2556600000000007 93.961699999999993 64.343299999999999
10.214499999999999 6.0471300000000001 34.738498999999997
12.3066 -2.7840600000000002 42.497700000000002
12.4115 -1.9331799999999999 39.124001
14.1281 4.9118199999999996 27.538699999999999
13.9086 5.49566 21.212098999999998
10.287599999999999 4.45723 20.882401000000002
10.6729 3.286 26.766199
-9.5758500000000009 87.096198999999999 63.549399999999999
8.6246200000000002 -0.59241600000000005 39.183700999999999
9.7340900000000001 -2.7353100000000001 42.4636
7.7638699999999998 1.51407 44.881100000000004
-13.3635 83.712303000000006 61.639499999999998
9.1927699999999994 6.3933400000000002 43.238498999999997
-11.5825 87.760002 59.438701999999999
-13.263 86.664703000000003 58.580798999999999
-9.8516080000000006 92.032653999999994 57.551704000000001
12.5578 6.10839 43.195801000000003
13.925700000000001 5.19137 43.409401000000003
10.928100000000001 -1.434939 48.267921000000001
12.686999999999999 -0.88562399999999997 48.284301999999997
-12.7743 91.650902000000002 54.467998999999999
19.2195 10.600300000000001 69.912903
18.395299999999999 4.1459799999999998 69.864898999999994
17.512599999999999 2.39845 70.216599000000002
-9.7278099999999998 96.319098999999994 57.504601000000001
18.334299000000001 13.2027 69.692595999999995
16.293399999999998 14.0116 62.535300999999997
14.1183 14.052199999999999 58.708801000000001
19.229199999999999 9.7926199999999994 65.764503000000005
18.485499999999998 12.0718 64.267998000000006
-12.129543 101.80933400000001 59.790840000000003
-11.562099999999999 103.550003 54.506199000000002
18.436700999999999 4.2271000000000001 64.084701999999993
-12.1037 103.219002 56.805500000000002
17.917400000000001 2.6786400000000001 64.177902000000003
10.451000000000001 1.60494 65.685997
11.879899999999999 0.55899699999999997 66.431899999999999
13.0235 -0.110919 63.7575
13.6526 -0.247166 69.437102999999993
5.8765400000000003 13.168100000000001 64.401604000000006
7.1250099999999996 14.9259 64.432700999999994
15.588699999999999 15.6685 67.266800000000003
6.4300600000000001 12.042199999999999 59.324401999999999
5.6473300000000002 7.3851000000000004 66.584701999999993
5.2254899999999997 8.5617800000000006 65.961501999999996
6.1155099999999996 7.1485000000000003 64.472099
6.4471299999999996 6.0823600000000004 66.808295999999999
13.679399999999999 10.6434 51.6404
16.295798999999999 11.588200000000001 56.063599000000004
17.176100000000002 5.1831399999999999 54.728298000000002
18.392900000000001 7.0059399999999998 58.773997999999999
15.127800000000001 -0.050209999999999998 56.341099
14.2866 0.116981 51.606299999999997
8.7124000000000006 6.87242 48.230300999999997
8.0808599999999995 4.9632100000000001 49.436199000000002
10.2681 -0.33093400000000001 56.449001000000003
9.3902800000000006 0.30508800000000003 56.365699999999997
6.1520799999999998 8.4760399999999994 57.368301000000002
11.3581 -0.39634999999999998 60.387900999999999
17.778400000000001 -2.5075599999999998 77.106003000000001
20.155799999999999 -0.249615 86.859397999999999
20.336300000000001 0.46986099999999997 86.449798999999999
19.655899000000002 -2.2227899999999998 81.625504000000006
19.877800000000001 17.248100000000001 82.399696000000006
17.358999000000001 17.595300999999999 77.572800000000001
12.910871999999999 18.155802000000001 72.812218000000001
10.449064 17.988019999999999 70.767028999999994
11.404400000000001 -6.2502500000000003 73.666602999999995
11.8604 -4.1128299999999998 72.094100999999995
20.165600000000001 15.598000000000001 77.935897999999995
20.341100999999998 10.6843 73.878403000000006
19.136600000000001 4.00528 72.184303
16.756701 0.19362699999999999 73.240195999999997
21.335999999999999 2.0828500000000001 78.440804
12.9772 19.759198999999999 71.894301999999996
19.004899999999999 19.261800999999998 79.482596999999998
8.9391700000000007 -2.49566 69.303901999999994
5.4473900000000004 4.6044799999999997 67.722397000000001
3.8039000000000001 12.6187 66.660499999999999
18.666 -0.89276299999999997 76.042502999999996
22.677098999999998 7.65266 82.9589
22.216298999999999 12.781000000000001 84.098395999999994
10.5388 19.693100000000001 69.537497999999999
14.1525 -6.24533 74.770202999999995
6.0886800000000001 18.979099000000001 65.161102
19.870501000000001 3.0227499999999998 91.951697999999993
16.666499999999999 20.577998999999998 99.828598
19.209700000000002 19.101800999999998 92.870200999999994
18.292899999999999 19.8095 96.184196
19.777901 18.370999999999999 89.051804000000004
2.7700200000000001 -13.349399999999999 83.4114
7.1859599999999997 -12.314299999999999 83.171501000000006
8.2928099999999993 -11.105627999999999 80.299865999999994
0 -4.6543900000000002 68.993301000000002
0 36.507899999999999 114.546997
0.66080700000000003 -11.024699999999999 77.068900999999997
1.8824399999999999 31.036698999999999 114.478996
2.1896800000000001 26.792400000000001 114.456001
1.7946599999999999 29.3428 63.085498999999999
0.74371100000000001 -11.9659 79.806197999999995
0.65349100000000004 -6.4145399999999997 69.938400000000001
10.0755 26.460999999999999 66.011002000000005
8.23935 27.0352 64.879204000000001
13.3673 25.791201000000001 68.394203000000005
20.877600000000001 25.001301000000002 78.113997999999995
19.114598999999998 25.029599999999999 74.429603999999998
21.740801000000001 25.6723 86.398003000000003
16.851800999999998 17.979299999999999 99.769699000000003
19.2439 27.102799999999998 96.549599000000001
17.219999000000001 28.239201000000001 100.245003
13.347799999999999 23.309601000000001 106.296997
12.8674 30.4697 106.86599699999999
10.914300000000001 31.569700000000001 108.677002
14.7523 29.455200000000001 104.085999
-18.159400999999999 98.433800000000005 60.416401
4.5646800000000001 35.200001 113.279999
3.0236100000000001 21.990299 114.893997
8.0686699999999991 19.663799000000001 112.905998
-19.400700000000001 95.291702000000001 59.326199000000003
-18.641399 96.624602999999993 57.134200999999997
8.1905800000000006 15.6435 113.883003
12.755487 15.185385999999999 109.07678199999999
12.27 10.8361 110.925003
15.8033 15.468999999999999 103.491997
15.8277 11.2639 104.837997
18.314800000000002 5.1509 99.001403999999994
17.836901000000001 3.8558400000000002 100.593002
18.909800000000001 -3.1697199999999999 94.512000999999998
17.444299999999998 -8.1562099999999997 88.244797000000005
18.546499000000001 -6.0742500000000001 91.285004000000001
-18.528500000000001 87.662300000000002 58.918900000000001
-18.914400000000001 84.551697000000004 61.655898999999998
10.768000000000001 -11.7705 85.745498999999995
12.3139 -9.7570999999999994 78.756698999999998
-20.246798999999999 91.422202999999996 60.846801999999997
18.490400000000001 -6.2128899999999998 80.701499999999996
18.085599999999999 -7.25793 84.365600999999998
19.7974 9.5131599999999992 96.214104000000006
17.261399999999998 9.3262 101.831001
22.104099000000001 8.2532300000000003 88.730698000000004
19.273099999999999 16.559401000000001 95.549103000000002
10.5436 25.450199000000001 109.55300099999999
12.3066 19.617100000000001 108.459
5.1377100000000002 25.366501 113.453003
7.0713600000000003 -6.9530099999999999 71.839896999999993
4.1184599999999998 21.1357 64.631302000000005
21.184799000000002 25.954999999999998 90.203201000000007
-19.870501000000001 3.0227499999999998 91.951697999999993
-16.666499999999999 20.577998999999998 99.828598
-19.209700000000002 19.101800999999998 92.870200999999994
-18.292899999999999 19.8095 96.184196
-19.777901 18.370999999999999 89.051804000000004
-4.16479 -13.3123 83.659401000000003
-12.186199999999999 99.713997000000006 75.575798000000006
-7.1859599999999997 -12.314299999999999 83.171501000000006
-8.3448840000000004 -11.107143000000001 80.357131999999993
-12.826000000000001 99.160895999999994 70.910697999999996
-1.56545 -0.35313499999999998 67.823600999999996
-1.7215100000000001 36.384602000000001 114.43800400000001
-11.7774 99.005797999999999 70.900902000000002
-0.66080700000000003 -11.024699999999999 77.068900999999997
-1.3728199999999999 22.320699999999999 64.275902000000002
-1.8824399999999999 31.036698999999999 114.478996
-2.1896800000000001 26.792400000000001 114.456001
-16.027699999999999 73.831397999999993 71.510399000000007
-1.752637 29.330372000000001 63.080219
-14.2705 72.523398999999998 74.056099000000003
-0.74371100000000001 -11.9659 79.806197999999995
-0.65349100000000004 -6.4145399999999997 69.938400000000001
-10.0755 26.460999999999999 66.011002000000005
-8.23935 27.0352 64.879204000000001
-13.3673 25.791201000000001 68.394203000000005
-20.877600000000001 25.001301000000002 78.113997999999995
-19.114598999999998 25.029599999999999 74.429603999999998
-21.740801000000001 25.6723 86.398003000000003
-16.851800999999998 17.979299999999999 99.769699000000003
-19.2439 27.102799999999998 96.549599000000001
-17.219999000000001 28.239201000000001 100.245003
-13.347799999999999 23.309601000000001 106.296997
-12.8674 30.4697 106.86599699999999
-11.5924 81.904799999999994 65.910797000000002
-10.914300000000001 31.569700000000001 108.677002
-14.7523 29.455200000000001 104.085999
-11.2681 79.188400000000001 69.222801000000004
-8.5893599999999992 86.733902 67.065201000000002
-4.5646800000000001 35.200001 113.279999
-3.0236100000000001 21.990299 114.893997
-8.0686699999999991 19.663799000000001 112.905998
-8.1905800000000006 15.6435 113.883003
-12.552899999999999 16.414100999999999 108.998001
-12.27 10.8361 110.925003
-15.8033 15.468999999999999 103.491997
-15.8277 11.2639 104.837997
-18.314800000000002 5.1509 99.001403999999994
-17.836901000000001 3.8558400000000002 100.593002
-18.909800000000001 -3.1697199999999999 94.512000999999998
-17.444299999999998 -8.1562099999999997 88.244797000000005
-18.546499000000001 -6.0742500000000001 91.285004000000001
-6.4789899999999996 95.583602999999997 73.482498000000007
-10.768000000000001 -11.7705 85.745498999999995
-12.3139 -9.7570999999999994 78.756698999999998
-18.490400000000001 -6.2128899999999998 80.701499999999996
-18.085599999999999 -7.25793 84.365600999999998
-19.7974 9.5131599999999992 96.214104000000006
-17.261399999999998 9.3262 101.831001
-6.3314300000000001 81.074798999999999 72.848999000000006
-22.104099000000001 8.2532300000000003 88.730698000000004
-19.273099999999999 16.559401000000001 95.549103000000002
-10.5436 25.450199000000001 109.55300099999999
-12.3066 19.617100000000001 108.459
-5.1377100000000002 25.366501 113.453003
-7.0713600000000003 -6.9530099999999999 71.839896999999993
-21.184799000000002 25.954999999999998 90.203201000000007
19.702299 55.440201000000002 76.750197999999997
13.045400000000001 37.226601000000002 106.916
-18.016123 95.574211000000005 67.440642999999994
0 36.537998000000002 62.818199
1.60934 42.172198999999999 114.677002
-17.645201 95.490798999999996 70.676102
-18.264748000000001 95.626380999999995 74.843986999999998
2.0092400000000001 50.406199999999998 64.479500000000002
2.0750799999999998 43.927101 63.429698999999999
1.66787 48.203601999999997 115.191002
2.1262799999999999 55.936698999999997 66.092201000000003
10.0901 34.663601 65.100700000000003
13.915900000000001 33.940201000000002 67.475898999999998
22.311399000000002 32.405898999999998 77.365996999999993
22.979500000000002 32.501300999999998 86.712997000000001
23.1355 32.486697999999997 82.241698999999997
17.844200000000001 35.297798 100.861
20.060699 34.311100000000003 97.104400999999996
-21.384501 87.812201999999999 70.628699999999995
-23.610299999999999 83.473502999999994 77.959502999999998
-22.857599 85.414398000000006 74.155997999999997
10.195 49.779300999999997 66.035301000000004
6.0886800000000001 50.086201000000003 64.912696999999994
6.2983900000000004 43.300499000000002 63.912300000000002
-19.2285 81.084800999999999 64.905700999999993
-20.122 77.881698999999998 68.405799999999999
11.1386 38.117198999999999 108.952003
18.185600000000001 42.068199 70.173102999999998
17.834499000000001 49.340198999999998 71.057097999999996
14.606 42.267899 67.428595999999999
-21.608499999999999 81.293296999999995 69.365898000000001
-22.969298999999999 74.879204000000001 77.523003000000003
23.179399 42.137797999999997 77.646797000000007
22.8673 49.348399999999998 79.112899999999996
20.792200000000001 49.355099000000003 74.743697999999995
24.2255 42.104999999999997 87.455001999999993
24.086500000000001 49.343102000000002 88.871398999999997
-20.806699999999999 71.978499999999997 76.784103000000002
24.213301000000001 42.107498 82.827599000000006
20.543500999999999 49.107101 99.809501999999995
20.745899000000001 42.274600999999997 98.334098999999995
18.302600999999999 42.694099000000001 102.150002
18.1661 49.233199999999997 103.51599899999999
-18.740100999999999 96.073997000000006 76.763000000000005
-19.662099999999999 91.662497999999999 2.5500400000000001
-17.037071000000001 93.246619999999993 2.4154110000000002
11.599500000000001 44.711101999999997 109.764999
-17.323098999999999 89.463997000000006 2.49451
11.682399999999999 50.341000000000001 110.78299699999999
14.905900000000001 49.551399000000004 107.569
14.930300000000001 43.531199999999998 106.40100099999999
4.5768800000000001 41.174900000000001 113.61199999999999
-10.9672 89.823798999999994 2.6274199999999999
5.0328600000000003 56.560501000000002 115.960999
22.567399999999999 55.425097999999998 86.382401000000002
-9.3331300000000006 92.124297999999996 2.7602199999999999
22.547899000000001 55.384399000000002 90.890197999999998
21.535900000000002 55.396500000000003 81.089104000000006
13.1113 55.529201999999998 69.405700999999993
-10.038795 98.433448999999996 2.9517600000000002
16.152000000000001 55.314700999999999 72.857001999999994
9.3585799999999999 55.718102000000002 67.579498000000001
-12.7988 97.337601000000006 2.6233499999999998
23.216000000000001 49.253700000000002 92.800499000000002
23.393999000000001 42.159599 91.364998
21.316500000000001 33.617198999999999 94.000900000000001
-19.702299 55.440201000000002 76.750197999999997
-13.045400000000001 37.226601000000002 106.916
-1.60934 42.172198999999999 114.677002
-18.239000000000001 99.126503 2.8305899999999999
-2.0092400000000001 50.406199999999998 64.479500000000002
-2.0394040000000002 43.935862999999998 63.426654999999997
-1.6776199999999999 56.846699000000001 116.71700300000001
-1.7239500000000001 53.084999000000003 115.86199999999999
-1.99461 36.540798000000002 62.837699999999998
-2.1262799999999999 55.936698999999997 66.092201000000003
-10.0901 34.663601 65.100700000000003
-13.915900000000001 33.940201000000002 67.475898999999998
-22.311399000000002 32.405898999999998 77.365996999999993
-22.979500000000002 32.501300999999998 86.712997000000001
-23.1355 32.486697999999997 82.241698999999997
-17.844200000000001 35.297798 100.861
-20.060699 34.311100000000003 97.104400999999996
-10.195 49.779300999999997 66.035301000000004
-6.0886800000000001 50.086201000000003 64.912696999999994
-6.2983900000000004 43.300499000000002 63.912300000000002
-11.1386 38.117198999999999 108.952003
-18.185600000000001 42.068199 70.173102999999998
-17.834499000000001 49.340198999999998 71.057097999999996
-14.606 42.267899 67.428595999999999
-23.179399 42.137797999999997 77.646797000000007
-22.8673 49.348399999999998 79.112899999999996
