65.871099999999998 67.675799999999995 53.789000000000001
161.971 65.871099999999998 53.789000000000001
66.773499999999999 65.871099999999998 53.789000000000001
65.419899999999998 65.871099999999998 53.789000000000001
160.166 59.554699999999997 53.789000000000001
67.224599999999995 59.554699999999997 53.789000000000001
65.871099999999998 59.554699999999997 53.789000000000001
78.955100000000002 56.847700000000003 53.789000000000001
77.601600000000005 56.847700000000003 53.789000000000001
155.654 54.591799999999999 53.789000000000001
159.26400000000001 53.689500000000002 53.789000000000001
155.654 53.689500000000002 53.789000000000001
79.857399999999998 53.689500000000002 53.789000000000001
75.345699999999994 53.689500000000002 53.789000000000001
64.066400000000002 53.689500000000002 53.789000000000001
66.322299999999998 50.982399999999998 53.789000000000001
157.91 47.824199999999998 53.789000000000001
154.30099999999999 47.824199999999998 53.789000000000001
77.601600000000005 59.554699999999997 0.63281200000000004
78.052800000000005 47.824199999999998 53.789000000000001
77.601600000000005 47.824199999999998 53.789000000000001
68.578100000000006 47.824199999999998 53.789000000000001
149.78899999999999 43.3125 53.789000000000001
153.398 41.959000000000003 53.789000000000001
148.887 41.959000000000003 53.789000000000001
78.955100000000002 41.959000000000003 53.789000000000001
77.150400000000005 41.959000000000003 53.789000000000001
71.285200000000003 41.959000000000003 53.789000000000001
85.271500000000003 39.252000000000002 53.789000000000001
109.184 36.093800000000002 53.789000000000001
90.685599999999994 36.093800000000002 53.789000000000001
147.98400000000001 35.642600000000002 53.789000000000001
143.92400000000001 35.642600000000002 53.789000000000001
109.184 35.642600000000002 53.789000000000001
82.113299999999995 35.642600000000002 53.789000000000001
107.83 35.191400000000002 53.789000000000001
92.941400000000002 34.740200000000002 53.789000000000001
84.369200000000006 34.289099999999998 53.789000000000001
96.099599999999995 33.386699999999998 53.789000000000001
137.607 32.033200000000001 53.789000000000001
128.13300000000001 30.2285 53.789000000000001
125.877 30.2285 53.789000000000001
114.14700000000001 30.2285 53.789000000000001
140.31399999999999 29.7774 53.789000000000001
132.64500000000001 29.7774 53.789000000000001
130.84 29.7774 53.789000000000001
125.877 29.7774 53.789000000000001
119.56100000000001 29.7774 53.789000000000001
110.988 29.7774 53.789000000000001
97.904300000000006 29.7774 53.789000000000001
95.648499999999999 29.7774 53.789000000000001
88.429699999999997 29.7774 53.789000000000001
103.77 28.4238 53.789000000000001
60.005899999999997 131.74199999999999 53.156199999999998
78.052800000000005 78.052800000000005 53.156199999999998
78.503900000000002 77.601600000000005 53.156199999999998
143.92400000000001 36.093800000000002 53.156199999999998
173.70099999999999 125.877 52.523400000000002
80.759799999999998 60.005899999999997 52.523400000000002
84.369200000000006 55.494199999999999 52.523400000000002
84.369200000000006 53.689500000000002 52.523400000000002
65.871099999999998 47.824199999999998 52.523400000000002
124.97499999999999 191.74799999999999 51.890599999999999
78.052800000000005 167.83600000000001 51.890599999999999
167.83600000000001 91.587900000000005 51.890599999999999
74.894599999999997 60.457000000000001 51.890599999999999
90.234399999999994 49.628900000000002 51.890599999999999
89.332099999999997 47.824199999999998 51.890599999999999
131.74199999999999 185.88300000000001 51.2577
206.637 170.54300000000001 51.2577
78.955100000000002 71.7363 51.2577
84.369200000000006 61.359400000000001 51.2577
90.234399999999994 55.494199999999999 51.2577
115.04900000000001 185.88300000000001 50.624899999999997
66.322299999999998 140.76599999999999 50.624899999999997
143.92400000000001 179.566 49.992100000000001
107.83 36.093800000000002 49.992100000000001
124.072 185.88300000000001 49.359299999999998
96.099599999999995 179.566 49.359299999999998
155.654 167.83600000000001 49.359299999999998
66.773499999999999 137.607 49.359299999999998
92.490300000000005 47.824199999999998 49.359299999999998
137.607 179.566 48.726500000000001
207.53899999999999 167.83600000000001 48.726500000000001
60.457000000000001 125.426 48.726500000000001
60.005899999999997 119.56100000000001 48.726500000000001
84.820300000000003 79.406300000000002 48.726500000000001
85.271500000000003 77.601600000000005 48.726500000000001
155.654 64.066400000000002 48.726500000000001
91.136700000000005 60.457000000000001 48.726500000000001
96.550799999999995 36.093800000000002 48.726500000000001
149.78899999999999 173.70099999999999 48.093699999999998
60.005899999999997 109.184 48.093699999999998
60.005899999999997 107.83 48.093699999999998
161.971 78.052800000000005 48.093699999999998
85.271500000000003 71.7363 48.093699999999998
155.654 68.578100000000006 48.093699999999998
149.78899999999999 49.177700000000002 48.093699999999998
137.607 36.093800000000002 48.093699999999998
129.48599999999999 191.297 47.460900000000002
125.877 191.297 47.460900000000002
119.56100000000001 191.297 47.460900000000002
133.547 190.39500000000001 47.460900000000002
113.69499999999999 190.39500000000001 47.460900000000002
138.059 188.59 47.460900000000002
107.83 188.59 47.460900000000002
142.56999999999999 185.88300000000001 47.460900000000002
133.547 185.88300000000001 47.460900000000002
118.20699999999999 185.88300000000001 47.460900000000002
112.79300000000001 185.88300000000001 47.460900000000002
102.416 185.88300000000001 47.460900000000002
101.965 185.88300000000001 47.460900000000002
122.71899999999999 185.43199999999999 47.460900000000002
144.82599999999999 184.078 47.460900000000002
127.23099999999999 184.078 47.460900000000002
95.648499999999999 183.17599999999999 47.460900000000002
89.783199999999994 180.46899999999999 47.460900000000002
149.33799999999999 179.566 47.460900000000002
143.02199999999999 179.566 47.460900000000002
133.096 179.566 47.460900000000002
131.74199999999999 179.566 47.460900000000002
97.453199999999995 179.566 47.460900000000002
88.429699999999997 179.566 47.460900000000002
150.24000000000001 178.66399999999999 47.460900000000002
95.648499999999999 178.66399999999999 47.460900000000002
83.918000000000006 175.95699999999999 47.460900000000002
155.203 173.70099999999999 47.460900000000002
149.78899999999999 173.70099999999999 47.460900000000002
87.5274 173.70099999999999 47.460900000000002
80.759799999999998 173.70099999999999 47.460900000000002
156.10599999999999 172.79900000000001 47.460900000000002
77.601600000000005 171.44499999999999 47.460900000000002
207.08799999999999 170.994 47.460900000000002
159.26400000000001 167.83600000000001 47.460900000000002
155.203 167.83600000000001 47.460900000000002
78.955100000000002 167.83600000000001 47.460900000000002
73.992199999999997 167.83600000000001 47.460900000000002
71.7363 164.227 47.460900000000002
162.422 162.422 47.460900000000002
162.422 161.971 47.460900000000002
161.971 161.971 47.460900000000002
72.1875 161.971 47.460900000000002
69.931700000000006 161.971 47.460900000000002
65.871099999999998 157.459 47.460900000000002
167.83600000000001 155.654 47.460900000000002
68.126999999999995 155.654 47.460900000000002
65.871099999999998 155.654 47.460900000000002
168.28700000000001 155.203 47.460900000000002
170.54300000000001 149.78899999999999 47.460900000000002
166.934 149.78899999999999 47.460900000000002
63.164099999999998 149.78899999999999 47.460900000000002
59.554699999999997 146.631 47.460900000000002
172.79900000000001 143.92400000000001 47.460900000000002
63.164099999999998 143.92400000000001 47.460900000000002
58.6524 143.92400000000001 47.460900000000002
67.224599999999995 139.41200000000001 47.460900000000002
174.15199999999999 138.50999999999999 47.460900000000002
174.15199999999999 137.607 47.460900000000002
171.89699999999999 137.607 47.460900000000002
69.029300000000006 137.607 47.460900000000002
59.103499999999997 137.607 47.460900000000002
62.261699999999998 136.70500000000001 47.460900000000002
175.05500000000001 131.74199999999999 47.460900000000002
171.89699999999999 131.74199999999999 47.460900000000002
65.871099999999998 131.74199999999999 47.460900000000002
59.554699999999997 131.74199999999999 47.460900000000002
175.05500000000001 125.877 47.460900000000002
172.79900000000001 125.877 47.460900000000002
62.712899999999998 125.877 47.460900000000002
57.2988 125.877 47.460900000000002
174.60400000000001 119.56100000000001 47.460900000000002
171.89699999999999 119.56100000000001 47.460900000000002
60.908200000000001 119.56100000000001 47.460900000000002
57.2988 119.56100000000001 47.460900000000002
173.70099999999999 113.69499999999999 47.460900000000002
59.554699999999997 113.69499999999999 47.460900000000002
60.005899999999997 110.988 47.460900000000002
172.79900000000001 107.83 47.460900000000002
60.457000000000001 107.83 47.460900000000002
58.2012 107.83 47.460900000000002
171.89699999999999 101.965 47.460900000000002
59.554699999999997 101.965 47.460900000000002
170.994 95.648499999999999 47.460900000000002
59.103499999999997 95.648499999999999 47.460900000000002
60.005899999999997 94.746099999999998 47.460900000000002
167.83600000000001 93.843800000000002 47.460900000000002
169.64099999999999 89.783199999999994 47.460900000000002
166.482 89.783199999999994 47.460900000000002
62.261699999999998 89.783199999999994 47.460900000000002
168.28700000000001 83.918000000000006 47.460900000000002
164.678 83.918000000000006 47.460900000000002
65.871099999999998 83.918000000000006 47.460900000000002
66.322299999999998 82.564499999999995 47.460900000000002
87.0762 80.759799999999998 47.460900000000002
161.971 78.955100000000002 47.460900000000002
165.58000000000001 77.601600000000005 47.460900000000002
161.52000000000001 77.601600000000005 47.460900000000002
88.429699999999997 77.601600000000005 47.460900000000002
69.480500000000006 77.601600000000005 47.460900000000002
81.210999999999999 75.796899999999994 47.460900000000002
74.894599999999997 74.443399999999997 47.460900000000002
162.422 71.7363 47.460900000000002
157.91 71.7363 47.460900000000002
87.0762 71.7363 47.460900000000002
83.918000000000006 71.7363 47.460900000000002
155.654 69.931700000000006 47.460900000000002
75.796899999999994 67.224599999999995 47.460900000000002
71.7363 66.322299999999998 47.460900000000002
158.81299999999999 65.871099999999998 47.460900000000002
155.654 65.871099999999998 47.460900000000002
89.783199999999994 65.871099999999998 47.460900000000002
75.345699999999994 65.871099999999998 47.460900000000002
71.7363 65.871099999999998 47.460900000000002
90.234399999999994 64.968800000000002 47.460900000000002
65.871099999999998 60.908200000000001 47.460900000000002
156.55699999999999 59.554699999999997 47.460900000000002
155.654 59.554699999999997 47.460900000000002
93.843800000000002 59.554699999999997 47.460900000000002
69.480500000000006 59.554699999999997 47.460900000000002
64.517600000000002 59.554699999999997 47.460900000000002
156.10599999999999 53.689500000000002 47.460900000000002
153.84999999999999 53.689500000000002 47.460900000000002
67.224599999999995 53.689500000000002 47.460900000000002
65.419899999999998 53.689500000000002 47.460900000000002
149.78899999999999 49.628900000000002 47.460900000000002
127.23099999999999 49.628900000000002 47.460900000000002
157.459 47.824199999999998 47.460900000000002
155.654 47.824199999999998 47.460900000000002
148.43600000000001 47.824199999999998 47.460900000000002
127.23099999999999 47.824199999999998 47.460900000000002
94.746099999999998 47.824199999999998 47.460900000000002
70.382800000000003 47.824199999999998 47.460900000000002
65.419899999999998 47.824199999999998 47.460900000000002
72.6387 46.019500000000001 47.460900000000002
78.503900000000002 42.410200000000003 47.460900000000002
153.398 41.959000000000003 47.460900000000002
146.18000000000001 41.959000000000003 47.460900000000002
79.857399999999998 41.959000000000003 47.460900000000002
72.1875 41.959000000000003 47.460900000000002
71.7363 41.959000000000003 47.460900000000002
143.92400000000001 41.507800000000003 47.460900000000002
95.648499999999999 37.898400000000002 47.460900000000002
137.607 37.447299999999998 47.460900000000002
108.732 37.447299999999998 47.460900000000002
97.001999999999995 37.447299999999998 47.460900000000002
84.369200000000006 37.447299999999998 47.460900000000002
107.83 36.996099999999998 47.460900000000002
131.74199999999999 36.544899999999998 47.460900000000002
146.18000000000001 35.642600000000002 47.460900000000002
143.02199999999999 35.642600000000002 47.460900000000002
136.25399999999999 35.642600000000002 47.460900000000002
130.38900000000001 35.642600000000002 47.460900000000002
109.63500000000001 35.642600000000002 47.460900000000002
100.611 35.642600000000002 47.460900000000002
86.625 35.642600000000002 47.460900000000002
82.113299999999995 35.642600000000002 47.460900000000002
104.221 35.191400000000002 47.460900000000002
125.877 34.740200000000002 47.460900000000002
91.136700000000005 34.740200000000002 47.460900000000002
119.56100000000001 33.837899999999998 47.460900000000002
137.15600000000001 29.7774 47.460900000000002
131.74199999999999 29.7774 47.460900000000002
113.244 29.7774 47.460900000000002
107.83 29.7774 47.460900000000002
101.965 29.7774 47.460900000000002
92.490300000000005 29.7774 47.460900000000002
125.877 28.4238 47.460900000000002
119.10899999999999 27.9727 47.460900000000002
102.416 179.566 46.828099999999999
72.1875 134.90000000000001 46.828099999999999
73.992199999999997 131.74199999999999 46.828099999999999
68.126999999999995 131.74199999999999 46.828099999999999
60.005899999999997 101.965 46.828099999999999
90.234399999999994 78.503900000000002 46.828099999999999
90.234399999999994 67.675799999999995 46.828099999999999
59.554699999999997 57.75 46.828099999999999
140.31399999999999 51.433599999999998 46.828099999999999
135.352 51.433599999999998 46.828099999999999
125.877 49.177700000000002 46.828099999999999
141.66800000000001 47.824199999999998 46.828099999999999
135.352 47.824199999999998 46.828099999999999
125.877 47.824199999999998 46.828099999999999
125.877 36.544899999999998 46.828099999999999
78.052800000000005 128.13300000000001 46.195300000000003
78.503900000000002 125.877 46.195300000000003
74.443399999999997 125.877 46.195300000000003
67.224599999999995 125.877 46.195300000000003
91.136700000000005 77.601600000000005 46.195300000000003
135.352 54.140599999999999 46.195300000000003
108.732 47.373100000000001 46.195300000000003
96.099599999999995 45.117199999999997 46.195300000000003
125.877 179.566 45.562399999999997
108.28100000000001 179.566 45.562399999999997
78.052800000000005 132.19300000000001 45.562399999999997
140.31399999999999 55.494199999999999 45.562399999999997
119.56100000000001 36.093800000000002 45.562399999999997
161.971 155.654 44.929600000000001
167.83600000000001 138.96100000000001 44.929600000000001
167.83600000000001 137.607 44.929600000000001
101.063 87.5274 44.929600000000001
66.322299999999998 84.369200000000006 44.929600000000001
149.78899999999999 66.322299999999998 44.929600000000001
149.78899999999999 65.871099999999998 44.929600000000001
96.099599999999995 56.396500000000003 44.929600000000001
131.74199999999999 55.945300000000003 44.929600000000001
125.877 54.140599999999999 44.929600000000001
108.732 48.275399999999998 44.929600000000001
119.56100000000001 179.566 44.296799999999998
22.107399999999998 169.64099999999999 44.296799999999998
76.699200000000005 119.56100000000001 44.296799999999998
94.746099999999998 84.369200000000006 44.296799999999998
96.099599999999995 81.210999999999999 44.296799999999998
96.099599999999995 62.261699999999998 44.296799999999998
144.375 55.042999999999999 44.296799999999998
90.234399999999994 173.70099999999999 43.664000000000001
84.369200000000006 122.268 43.664000000000001
78.503900000000002 119.56100000000001 43.664000000000001
167.83600000000001 96.550799999999995 43.664000000000001
99.709000000000003 90.234399999999994 43.664000000000001
96.550799999999995 77.601600000000005 43.664000000000001
96.550799999999995 71.7363 43.664000000000001
59.554699999999997 60.908200000000001 43.664000000000001
107.83 46.019500000000001 43.664000000000001
143.92400000000001 173.70099999999999 43.031199999999998
143.92400000000001 64.066400000000002 43.031199999999998
132.64500000000001 60.457000000000001 43.031199999999998
131.74199999999999 60.457000000000001 43.031199999999998
167.83600000000001 131.74199999999999 42.398400000000002
88.880899999999997 119.56100000000001 42.398400000000002
69.480500000000006 119.56100000000001 42.398400000000002
91.587900000000005 118.20699999999999 42.398400000000002
107.83 96.099599999999995 42.398400000000002
143.92400000000001 68.126999999999995 42.398400000000002
125.877 60.005899999999997 42.398400000000002
119.56100000000001 47.824199999999998 42.398400000000002
122.71899999999999 184.078 41.765599999999999
119.56100000000001 184.078 41.765599999999999
126.779 183.17599999999999 41.765599999999999
113.69499999999999 182.72499999999999 41.765599999999999
134.44900000000001 181.822 41.765599999999999
138.059 180.91999999999999 41.765599999999999
107.83 180.46899999999999 41.765599999999999
100.611 180.018 41.765599999999999
141.66800000000001 179.566 41.765599999999999
131.291 179.566 41.765599999999999
113.69499999999999 179.566 41.765599999999999
105.123 179.566 41.765599999999999
101.965 179.566 41.765599999999999
133.99799999999999 179.11500000000001 41.765599999999999
95.648499999999999 179.11500000000001 41.765599999999999
120.914 178.66399999999999 41.765599999999999
119.56100000000001 178.66399999999999 41.765599999999999
144.82599999999999 178.21299999999999 41.765599999999999
89.783199999999994 176.85900000000001 41.765599999999999
150.24000000000001 174.60400000000001 41.765599999999999
151.143 173.70099999999999 41.765599999999999
147.53299999999999 173.70099999999999 41.765599999999999
142.56999999999999 173.70099999999999 41.765599999999999
92.941400000000002 173.70099999999999 41.765599999999999
85.271500000000003 173.70099999999999 41.765599999999999
83.918000000000006 172.79900000000001 41.765599999999999
21.656300000000002 169.19 41.765599999999999
156.10599999999999 168.738 41.765599999999999
157.00800000000001 167.83600000000001 41.765599999999999
151.143 167.83600000000001 41.765599999999999
82.113299999999995 167.83600000000001 41.765599999999999
77.601600000000005 167.83600000000001 41.765599999999999
71.7363 162.422 41.765599999999999
161.06800000000001 161.971 41.765599999999999
74.894599999999997 161.971 41.765599999999999
71.285200000000003 161.971 41.765599999999999
162.422 160.166 41.765599999999999
165.12899999999999 155.654 41.765599999999999
161.52000000000001 155.654 41.765599999999999
71.7363 155.654 41.765599999999999
65.871099999999998 155.203 41.765599999999999
167.83600000000001 149.78899999999999 41.765599999999999
63.615299999999998 149.78899999999999 41.765599999999999
168.28700000000001 148.43600000000001 41.765599999999999
59.554699999999997 145.27699999999999 41.765599999999999
170.54300000000001 143.92400000000001 41.765599999999999
167.38499999999999 143.92400000000001 41.765599999999999
62.712899999999998 143.92400000000001 41.765599999999999
59.103499999999997 143.92400000000001 41.765599999999999
171.89699999999999 137.607 41.765599999999999
167.83600000000001 137.607 41.765599999999999
58.6524 137.607 41.765599999999999
73.540999999999997 134.90000000000001 41.765599999999999
60.005899999999997 133.547 41.765599999999999
78.052800000000005 132.19300000000001 41.765599999999999
173.25 131.74199999999999 41.765599999999999
167.38499999999999 131.74199999999999 41.765599999999999
78.503900000000002 131.74199999999999 41.765599999999999
76.248099999999994 131.74199999999999 41.765599999999999
56.396500000000003 131.74199999999999 41.765599999999999
62.261699999999998 130.38900000000001 41.765599999999999
174.15199999999999 129.48599999999999 41.765599999999999
169.64099999999999 125.877 41.765599999999999
79.857399999999998 125.877 41.765599999999999
76.248099999999994 125.877 41.765599999999999
55.945300000000003 125.877 41.765599999999999
85.722700000000003 124.523 41.765599999999999
174.15199999999999 124.072 41.765599999999999
90.234399999999994 120.914 41.765599999999999
69.029300000000006 120.012 41.765599999999999
65.871099999999998 120.012 41.765599999999999
173.70099999999999 119.56100000000001 41.765599999999999
91.587900000000005 119.56100000000001 41.765599999999999
83.918000000000006 119.56100000000001 41.765599999999999
73.992199999999997 119.56100000000001 41.765599999999999
69.480500000000006 119.56100000000001 41.765599999999999
65.871099999999998 119.56100000000001 41.765599999999999
58.2012 119.56100000000001 41.765599999999999
86.625 117.756 41.765599999999999
169.64099999999999 113.69499999999999 41.765599999999999
61.359400000000001 113.69499999999999 41.765599999999999
58.2012 113.69499999999999 41.765599999999999
171.44499999999999 107.83 41.765599999999999
60.908200000000001 107.83 41.765599999999999
170.09200000000001 101.965 41.765599999999999
63.164099999999998 101.965 41.765599999999999
167.83600000000001 98.355500000000006 41.765599999999999
110.53700000000001 97.001999999999995 41.765599999999999
169.19 95.648499999999999 41.765599999999999
166.934 95.648499999999999 41.765599999999999
62.712899999999998 95.648499999999999 41.765599999999999
165.58000000000001 89.783199999999994 41.765599999999999
63.164099999999998 89.783199999999994 41.765599999999999
100.611 87.978499999999997 41.765599999999999
94.746099999999998 87.5274 41.765599999999999
66.322299999999998 84.820300000000003 41.765599999999999
165.58000000000001 83.918000000000006 41.765599999999999
161.971 83.918000000000006 41.765599999999999
66.773499999999999 83.918000000000006 41.765599999999999
64.517600000000002 83.918000000000006 41.765599999999999
96.550799999999995 82.564499999999995 41.765599999999999
95.648499999999999 82.113299999999995 41.765599999999999
88.429699999999997 80.308599999999998 41.765599999999999
102.416 79.406300000000002 41.765599999999999
162.87299999999999 77.601600000000005 41.765599999999999
161.52000000000001 77.601600000000005 41.765599999999999
102.416 77.601600000000005 41.765599999999999
101.965 77.601600000000005 41.765599999999999
86.625 77.601600000000005 41.765599999999999
69.931700000000006 77.601600000000005 41.765599999999999
72.1875 75.345699999999994 41.765599999999999
95.648499999999999 74.443399999999997 41.765599999999999
79.857399999999998 72.6387 41.765599999999999
155.654 72.1875 41.765599999999999
159.715 71.7363 41.765599999999999
155.654 71.7363 41.765599999999999
100.16 71.7363 41.765599999999999
141.21700000000001 69.029300000000006 41.765599999999999
137.607 68.126999999999995 41.765599999999999
149.78899999999999 67.224599999999995 41.765599999999999
70.834000000000003 66.322299999999998 41.765599999999999
153.84999999999999 65.871099999999998 41.765599999999999
149.78899999999999 65.871099999999998 41.765599999999999
143.47300000000001 65.871099999999998 41.765599999999999
135.803 65.871099999999998 41.765599999999999
97.904300000000006 65.871099999999998 41.765599999999999
71.285200000000003 65.871099999999998 41.765599999999999
131.74199999999999 63.615299999999998 41.765599999999999
59.554699999999997 63.164099999999998 41.765599999999999
60.457000000000001 62.712899999999998 41.765599999999999
125.877 61.810600000000001 41.765599999999999
151.59399999999999 59.554699999999997 41.765599999999999
149.78899999999999 59.554699999999997 41.765599999999999
143.92400000000001 59.554699999999997 41.765599999999999
126.328 59.554699999999997 41.765599999999999
125.877 59.554699999999997 41.765599999999999
99.257800000000003 59.554699999999997 41.765599999999999
66.773499999999999 59.554699999999997 41.765599999999999
64.968800000000002 59.554699999999997 41.765599999999999
58.6524 59.554699999999997 41.765599999999999
152.04499999999999 53.689500000000002 41.765599999999999
149.78899999999999 53.689500000000002 41.765599999999999
123.17 53.689500000000002 41.765599999999999
63.615299999999998 53.689500000000002 41.765599999999999
108.28100000000001 50.080100000000002 41.765599999999999
107.83 49.628900000000002 41.765599999999999
156.10599999999999 47.824199999999998 41.765599999999999
154.75200000000001 47.824199999999998 41.765599999999999
146.18000000000001 47.824199999999998 41.765599999999999
108.28100000000001 47.824199999999998 41.765599999999999
107.83 47.824199999999998 41.765599999999999
118.658 47.373100000000001 41.765599999999999
143.92400000000001 42.8613 41.765599999999999
153.398 41.959000000000003 41.765599999999999
144.375 41.959000000000003 41.765599999999999
143.92400000000001 41.959000000000003 41.765599999999999
109.184 41.959000000000003 41.765599999999999
107.379 41.959000000000003 41.765599999999999
115.95099999999999 38.349600000000002 41.765599999999999
92.039100000000005 37.898400000000002 41.765599999999999
137.607 37.447299999999998 41.765599999999999
128.13300000000001 37.447299999999998 41.765599999999999
125.877 36.093800000000002 41.765599999999999
145.72900000000001 35.642600000000002 41.765599999999999
142.119 35.642600000000002 41.765599999999999
136.25399999999999 35.642600000000002 41.765599999999999
125.426 35.642600000000002 41.765599999999999
116.854 35.642600000000002 41.765599999999999
113.244 35.642600000000002 41.765599999999999
93.392600000000002 35.642600000000002 41.765599999999999
131.74199999999999 34.740200000000002 41.765599999999999
96.099599999999995 32.935600000000001 41.765599999999999
106.02500000000001 30.6797 41.765599999999999
132.19300000000001 29.7774 41.765599999999999
131.74199999999999 29.7774 41.765599999999999
100.611 29.7774 41.765599999999999
125.877 28.875 41.765599999999999
106.02500000000001 28.875 41.765599999999999
119.56100000000001 28.4238 41.765599999999999
108.28100000000001 28.4238 41.765599999999999
72.1875 155.654 41.132800000000003
117.30500000000001 96.099599999999995 41.132800000000003
161.971 84.369200000000006 41.132800000000003
131.74199999999999 66.773499999999999 41.132800000000003
70.382800000000003 137.607 40.499899999999997
93.392600000000002 113.69499999999999 40.499899999999997
107.379 85.271500000000003 40.499899999999997
108.732 84.820300000000003 40.499899999999997
110.086 83.918000000000006 40.499899999999997
104.221 71.7363 40.499899999999997
78.052800000000005 71.7363 40.499899999999997
125.877 66.773499999999999 40.499899999999997
102.416 56.847700000000003 40.499899999999997
101.965 53.689500000000002 40.499899999999997
119.56100000000001 53.238300000000002 40.499899999999997
97.453199999999995 173.70099999999999 39.867100000000001
66.322299999999998 139.41200000000001 39.867100000000001
84.369200000000006 126.328 39.867100000000001
89.783199999999994 113.69499999999999 39.867100000000001
112.79300000000001 77.601600000000005 39.867100000000001
130.84 73.992199999999997 39.867100000000001
132.64500000000001 73.540999999999997 39.867100000000001
125.877 72.1875 39.867100000000001
77.601600000000005 71.7363 39.867100000000001
102.416 61.810600000000001 39.867100000000001
119.56100000000001 59.554699999999997 39.867100000000001
101.965 47.824199999999998 39.867100000000001
137.607 173.70099999999999 39.234299999999998
149.78899999999999 167.83600000000001 39.234299999999998
84.369200000000006 167.83600000000001 39.234299999999998
67.675799999999995 149.78899999999999 39.234299999999998
74.894599999999997 113.69499999999999 39.234299999999998
114.598 78.052800000000005 39.234299999999998
116.402 77.601600000000005 39.234299999999998
119.56100000000001 71.7363 39.234299999999998
113.69499999999999 71.7363 39.234299999999998
59.103499999999997 66.322299999999998 39.234299999999998
119.56100000000001 65.871099999999998 39.234299999999998
109.63500000000001 65.871099999999998 39.234299999999998
120.012 173.70099999999999 38.601500000000001
119.56100000000001 173.70099999999999 38.601500000000001
103.77 173.70099999999999 38.601500000000001
212.05099999999999 125.426 38.601500000000001
167.83600000000001 118.20699999999999 38.601500000000001
83.918000000000006 113.69499999999999 38.601500000000001
96.099599999999995 110.988 38.601500000000001
124.97499999999999 80.308599999999998 38.601500000000001
126.328 79.406300000000002 38.601500000000001
113.69499999999999 173.70099999999999 37.968699999999998
155.654 161.971 37.968699999999998
167.83600000000001 125.877 37.968699999999998
152.49600000000001 120.46299999999999 37.968699999999998
152.49600000000001 119.56100000000001 37.968699999999998
70.834000000000003 113.69499999999999 37.968699999999998
97.453199999999995 107.83 37.968699999999998
167.83600000000001 106.477 37.968699999999998
115.04900000000001 84.820300000000003 37.968699999999998
156.10599999999999 48.275399999999998 37.968699999999998
131.74199999999999 173.70099999999999 37.335900000000002
161.971 149.78899999999999 37.335900000000002
149.78899999999999 120.46299999999999 37.335900000000002
149.33799999999999 119.56100000000001 37.335900000000002
96.099599999999995 114.14700000000001 37.335900000000002
167.83600000000001 113.69499999999999 37.335900000000002
124.072 86.625 37.335900000000002
96.099599999999995 36.996099999999998 37.335900000000002
161.971 130.38900000000001 36.703099999999999
159.26400000000001 125.877 36.703099999999999
156.10599999999999 119.56100000000001 36.703099999999999
136.25399999999999 113.69499999999999 36.703099999999999
66.322299999999998 97.904300000000006 36.703099999999999
66.322299999999998 95.648499999999999 36.703099999999999
126.328 84.369200000000006 36.703099999999999
109.184 59.554699999999997 36.703099999999999
95.648499999999999 50.531300000000002 36.703099999999999
78.052800000000005 161.971 36.070300000000003
155.654 127.23099999999999 36.070300000000003
143.92400000000001 116.854 36.070300000000003
137.607 116.402 36.070300000000003
151.143 113.69499999999999 36.070300000000003
138.50999999999999 113.69499999999999 36.070300000000003
59.554699999999997 107.83 36.070300000000003
103.77 100.611 36.070300000000003
212.50200000000001 97.904300000000006 36.070300000000003
104.221 95.648499999999999 36.070300000000003
95.648499999999999 47.824199999999998 36.070300000000003
118.20699999999999 177.31100000000001 35.4375
120.012 176.40799999999999 35.4375
137.15600000000001 175.95699999999999 35.4375
131.74199999999999 175.95699999999999 35.4375
113.69499999999999 175.95699999999999 35.4375
138.96100000000001 175.506 35.4375
107.83 174.60400000000001 35.4375
100.611 174.15199999999999 35.4375
143.92400000000001 173.70099999999999 35.4375
120.914 173.70099999999999 35.4375
114.14700000000001 173.70099999999999 35.4375
113.69499999999999 173.70099999999999 35.4375
104.672 173.70099999999999 35.4375
101.965 173.70099999999999 35.4375
144.82599999999999 173.25 35.4375
95.648499999999999 173.25 35.4375
132.19300000000001 172.34800000000001 35.4375
131.74199999999999 172.34800000000001 35.4375
89.783199999999994 170.994 35.4375
150.24000000000001 169.19 35.4375
151.59399999999999 167.83600000000001 35.4375
147.53299999999999 167.83600000000001 35.4375
89.332099999999997 167.83600000000001 35.4375
83.918000000000006 167.38499999999999 35.4375
156.10599999999999 164.227 35.4375
77.601600000000005 163.32400000000001 35.4375
158.81299999999999 161.971 35.4375
154.30099999999999 161.971 35.4375
78.503900000000002 161.971 35.4375
76.248099999999994 161.971 35.4375
71.7363 156.55699999999999 35.4375
162.422 156.10599999999999 35.4375
162.422 155.654 35.4375
159.715 155.654 35.4375
73.992199999999997 155.654 35.4375
71.285200000000003 155.654 35.4375
65.871099999999998 151.143 35.4375
166.03100000000001 149.78899999999999 35.4375
161.52000000000001 149.78899999999999 35.4375
71.285200000000003 149.78899999999999 35.4375
65.871099999999998 149.78899999999999 35.4375
168.28700000000001 145.27699999999999 35.4375
169.19 143.92400000000001 35.4375
167.38499999999999 143.92400000000001 35.4375
66.322299999999998 143.92400000000001 35.4375
65.871099999999998 143.92400000000001 35.4375
59.554699999999997 143.92400000000001 35.4375
170.994 137.607 35.4375
70.834000000000003 137.607 35.4375
60.457000000000001 137.607 35.4375
58.6524 137.607 35.4375
72.1875 137.15600000000001 35.4375
164.227 132.64500000000001 35.4375
171.89699999999999 131.74199999999999 35.4375
164.227 131.74199999999999 35.4375
78.052800000000005 131.74199999999999 35.4375
77.601600000000005 131.74199999999999 35.4375
60.908200000000001 131.74199999999999 35.4375
58.2012 131.74199999999999 35.4375
161.971 131.291 35.4375
84.369200000000006 129.48599999999999 35.4375
155.654 127.682 35.4375
170.09200000000001 125.877 35.4375
155.654 125.877 35.4375
89.332099999999997 125.877 35.4375
83.918000000000006 125.877 35.4375
77.601600000000005 125.877 35.4375
71.7363 125.426 35.4375
149.78899999999999 124.072 35.4375
90.234399999999994 124.072 35.4375
161.971 123.17 35.4375
65.871099999999998 123.17 35.4375
166.934 122.268 35.4375
172.79900000000001 119.56100000000001 35.4375
165.58000000000001 119.56100000000001 35.4375
150.24000000000001 119.56100000000001 35.4375
144.82599999999999 119.56100000000001 35.4375
80.308599999999998 119.56100000000001 35.4375
71.285200000000003 119.56100000000001 35.4375
161.971 119.10899999999999 35.4375
77.601600000000005 118.20699999999999 35.4375
64.517600000000002 118.20699999999999 35.4375
143.92400000000001 117.756 35.4375
137.607 117.756 35.4375
94.746099999999998 117.30500000000001 35.4375
86.173900000000003 117.30500000000001 35.4375
96.099599999999995 116.402 35.4375
59.554699999999997 116.402 35.4375
171.44499999999999 113.69499999999999 35.4375
163.77500000000001 113.69499999999999 35.4375
161.52000000000001 113.69499999999999 35.4375
153.398 113.69499999999999 35.4375
147.53299999999999 113.69499999999999 35.4375
143.02199999999999 113.69499999999999 35.4375
132.64500000000001 113.69499999999999 35.4375
97.453199999999995 113.69499999999999 35.4375
86.173900000000003 113.69499999999999 35.4375
79.406300000000002 113.69499999999999 35.4375
71.285200000000003 113.69499999999999 35.4375
63.164099999999998 113.69499999999999 35.4375
58.2012 113.69499999999999 35.4375
73.540999999999997 113.244 35.4375
131.74199999999999 111.43899999999999 35.4375
170.09200000000001 107.83 35.4375
167.83600000000001 107.83 35.4375
99.709000000000003 107.83 35.4375
64.066400000000002 107.83 35.4375
58.6524 107.83 35.4375
168.28700000000001 101.965 35.4375
166.03100000000001 101.965 35.4375
103.77 101.965 35.4375
64.066400000000002 101.965 35.4375
213.404 99.709000000000003 35.4375
66.322299999999998 97.904300000000006 35.4375
213.404 95.648499999999999 35.4375
67.224599999999995 95.648499999999999 35.4375
65.419899999999998 95.648499999999999 35.4375
103.77 95.197299999999998 35.4375
165.58000000000001 92.941400000000002 35.4375
101.965 91.587900000000005 35.4375
164.678 89.783199999999994 35.4375
104.221 89.783199999999994 35.4375
101.063 89.783199999999994 35.4375
66.322299999999998 89.783199999999994 35.4375
64.517600000000002 89.783199999999994 35.4375
161.971 87.978499999999997 35.4375
162.422 83.918000000000006 35.4375
159.715 83.918000000000006 35.4375
69.480500000000006 83.918000000000006 35.4375
117.756 83.015600000000006 35.4375
100.16 81.210999999999999 35.4375
88.429699999999997 78.503900000000002 35.4375
159.26400000000001 77.601600000000005 35.4375
97.904300000000006 77.601600000000005 35.4375
87.978499999999997 77.601600000000005 35.4375
72.1875 77.601600000000005 35.4375
71.7363 77.601600000000005 35.4375
155.654 75.796899999999994 35.4375
134.44900000000001 73.0899 35.4375
79.857399999999998 72.1875 35.4375
155.203 71.7363 35.4375
136.25399999999999 71.7363 35.4375
79.406300000000002 71.7363 35.4375
138.059 69.931700000000006 35.4375
149.78899999999999 69.029300000000006 35.4375
73.0899 69.029300000000006 35.4375
71.7363 68.126999999999995 35.4375
58.2012 67.675799999999995 35.4375
71.285200000000003 65.871099999999998 35.4375
59.103499999999997 65.871099999999998 35.4375
60.005899999999997 64.968800000000002 35.4375
66.322299999999998 59.554699999999997 35.4375
65.871099999999998 59.554699999999997 35.4375
59.554699999999997 59.554699999999997 35.4375
147.08199999999999 58.6524 35.4375
149.78899999999999 53.689500000000002 35.4375
150.24000000000001 53.238300000000002 35.4375
109.184 50.982399999999998 35.4375
156.10599999999999 48.726599999999998 35.4375
156.55699999999999 47.824199999999998 35.4375
154.75200000000001 47.824199999999998 35.4375
96.099599999999995 47.373100000000001 35.4375
95.648499999999999 47.373100000000001 35.4375
106.477 46.921900000000001 35.4375
149.78899999999999 44.665999999999997 35.4375
110.53700000000001 42.410200000000003 35.4375
153.398 41.959000000000003 35.4375
110.53700000000001 41.959000000000003 35.4375
95.648499999999999 41.959000000000003 35.4375
148.43600000000001 41.507800000000003 35.4375
96.099599999999995 41.507800000000003 35.4375
118.658 39.252000000000002 35.4375
102.416 36.544899999999998 35.4375
118.20699999999999 35.642600000000002 35.4375
111.89100000000001 35.642600000000002 35.4375
102.416 35.642600000000002 35.4375
97.001999999999995 35.642600000000002 35.4375
90.685599999999994 167.83600000000001 34.804600000000001
78.052800000000005 132.19300000000001 34.804600000000001
132.64500000000001 107.83 34.804600000000001
131.74199999999999 107.83 34.804600000000001
103.318 102.867 34.804600000000001
117.30500000000001 84.369200000000006 34.804600000000001
120.012 82.113299999999995 34.804600000000001
72.1875 78.052800000000005 34.804600000000001
112.342 72.6387 34.804600000000001
72.1875 149.78899999999999 34.171799999999998
90.234399999999994 126.328 34.171799999999998
73.0899 107.83 34.171799999999998
71.7363 107.83 34.171799999999998
212.953 89.783199999999994 34.171799999999998
104.221 82.113299999999995 34.171799999999998
147.53299999999999 65.419899999999998 34.171799999999998
143.47300000000001 167.83600000000001 33.539000000000001
97.001999999999995 167.83600000000001 33.539000000000001
71.7363 126.328 33.539000000000001
143.92400000000001 120.46299999999999 33.539000000000001
125.877 105.574 33.539000000000001
125.877 101.965 33.539000000000001
101.514 96.099599999999995 33.539000000000001
117.30500000000001 94.746099999999998 33.539000000000001
95.648499999999999 88.429699999999997 33.539000000000001
95.648499999999999 83.918000000000006 33.539000000000001
161.971 143.92400000000001 32.906199999999998
96.099599999999995 120.012 32.906199999999998
112.79300000000001 95.197299999999998 32.906199999999998
72.1875 85.271500000000003 32.906199999999998
155.654 78.052800000000005 32.906199999999998
116.402 77.150400000000005 32.906199999999998
137.607 167.83600000000001 32.273400000000002
117.30500000000001 167.83600000000001 32.273400000000002
104.672 167.83600000000001 32.273400000000002
85.271500000000003 161.971 32.273400000000002
137.607 120.012 32.273400000000002
138.96100000000001 107.83 32.273400000000002
119.56100000000001 102.867 32.273400000000002
126.779 101.965 32.273400000000002
95.197299999999998 90.234399999999994 32.273400000000002
108.28100000000001 89.332099999999997 32.273400000000002
121.816 77.601600000000005 32.273400000000002
131.74199999999999 75.345699999999994 32.273400000000002
113.69499999999999 167.83600000000001 31.640599999999999
125.877 108.28100000000001 31.640599999999999
161.971 107.83 31.640599999999999
85.271500000000003 107.83 31.640599999999999
78.052800000000005 107.83 31.640599999999999
56.396500000000003 101.965 31.640599999999999
120.012 94.294899999999998 31.640599999999999
120.012 86.625 31.640599999999999
118.20699999999999 42.8613 31.640599999999999
131.74199999999999 167.83600000000001 31.0078
84.369200000000006 132.64500000000001 31.0078
102.416 108.732 31.0078
95.648499999999999 96.099599999999995 31.0078
74.443399999999997 93.392600000000002 31.0078
161.971 92.490300000000005 31.0078
106.928 77.601600000000005 31.0078
121.36499999999999 167.83600000000001 30.375
149.33799999999999 161.971 30.375
78.503900000000002 155.654 30.375
131.74199999999999 115.04900000000001 30.375
155.654 107.83 30.375
148.887 107.83 30.375
53.689500000000002 100.611 30.375
78.052800000000005 87.5274 30.375
82.113299999999995 83.918000000000006 30.375
118.20699999999999 172.34800000000001 29.7422
120.012 171.89699999999999 29.7422
113.69499999999999 171.44499999999999 29.7422
136.25399999999999 170.994 29.7422
131.74199999999999 170.994 29.7422
139.41200000000001 170.09200000000001 29.7422
107.83 168.28700000000001 29.7422
144.82599999999999 167.83600000000001 29.7422
137.15600000000001 167.83600000000001 29.7422
118.658 167.83600000000001 29.7422
113.69499999999999 167.83600000000001 29.7422
106.477 167.83600000000001 29.7422
127.682 167.38499999999999 29.7422
125.877 167.38499999999999 29.7422
101.965 167.38499999999999 29.7422
95.648499999999999 165.58000000000001 29.7422
138.96100000000001 165.12899999999999 29.7422
150.24000000000001 163.77500000000001 29.7422
89.783199999999994 163.32400000000001 29.7422
152.49600000000001 161.971 29.7422
148.887 161.971 29.7422
91.587900000000005 161.971 29.7422
87.978499999999997 161.971 29.7422
156.10599999999999 159.715 29.7422
83.918000000000006 159.715 29.7422
77.601600000000005 157.459 29.7422
159.26400000000001 155.654 29.7422
80.759799999999998 155.654 29.7422
76.248099999999994 155.654 29.7422
70.382800000000003 150.24000000000001 29.7422
162.422 149.78899999999999 29.7422
158.81299999999999 149.78899999999999 29.7422
75.796899999999994 149.78899999999999 29.7422
71.7363 149.78899999999999 29.7422
65.871099999999998 148.43600000000001 29.7422
166.934 143.92400000000001 29.7422
161.971 143.92400000000001 29.7422
72.1875 143.92400000000001 29.7422
71.7363 143.92400000000001 29.7422
62.712899999999998 143.92400000000001 29.7422
168.28700000000001 140.76599999999999 29.7422
59.554699999999997 138.96100000000001 29.7422
169.19 137.607 29.7422
167.38499999999999 137.607 29.7422
72.6387 137.607 29.7422
71.7363 137.607 29.7422
61.810600000000001 137.607 29.7422
59.554699999999997 137.607 29.7422
79.406300000000002 136.70500000000001 29.7422
84.369200000000006 133.99799999999999 29.7422
170.54300000000001 131.74199999999999 29.7422
86.625 131.74199999999999 29.7422
60.457000000000001 131.74199999999999 29.7422
83.466800000000006 131.291 29.7422
158.36099999999999 129.48599999999999 29.7422
90.234399999999994 129.48599999999999 29.7422
154.30099999999999 128.13300000000001 29.7422
72.6387 128.13300000000001 29.7422
167.83600000000001 127.23099999999999 29.7422
170.54300000000001 125.877 29.7422
152.49600000000001 125.877 29.7422
91.587900000000005 125.877 29.7422
88.429699999999997 125.877 29.7422
64.517600000000002 125.877 29.7422
149.78899999999999 125.426 29.7422
73.540999999999997 125.426 29.7422
71.7363 124.97499999999999 29.7422
78.052800000000005 124.072 29.7422
143.92400000000001 123.17 29.7422
96.099599999999995 121.36499999999999 29.7422
137.607 120.914 29.7422
170.994 119.56100000000001 29.7422
153.84999999999999 119.56100000000001 29.7422
66.322299999999998 102.416 0.63281200000000004
143.02199999999999 119.56100000000001 29.7422
135.803 119.56100000000001 29.7422
96.550799999999995 119.56100000000001 29.7422
93.392600000000002 119.56100000000001 29.7422
89.783199999999994 119.56100000000001 29.7422
82.564499999999995 119.56100000000001 29.7422
160.61699999999999 119.10899999999999 29.7422
162.422 118.20699999999999 29.7422
149.78899999999999 118.20699999999999 29.7422
131.74199999999999 117.30500000000001 29.7422
64.517600000000002 116.854 29.7422
72.1875 115.04900000000001 29.7422
71.7363 115.04900000000001 29.7422
168.28700000000001 113.69499999999999 29.7422
167.83600000000001 113.69499999999999 29.7422
152.49600000000001 113.69499999999999 29.7422
146.18000000000001 113.69499999999999 29.7422
135.352 113.69499999999999 29.7422
131.291 113.69499999999999 29.7422
83.918000000000006 113.69499999999999 29.7422
76.699200000000005 113.69499999999999 29.7422
71.7363 113.69499999999999 29.7422
100.611 112.342 29.7422
143.47300000000001 111.89100000000001 29.7422
125.877 111.43899999999999 29.7422
88.429699999999997 110.988 29.7422
157.459 110.53700000000001 29.7422
102.416 110.53700000000001 29.7422
168.738 107.83 29.7422
167.83600000000001 107.83 29.7422
157.459 107.83 29.7422
155.654 107.83 29.7422
148.887 107.83 29.7422
140.31399999999999 107.83 29.7422
104.672 107.83 29.7422
81.662099999999995 107.83 29.7422
75.345699999999994 107.83 29.7422
71.7363 107.83 29.7422
122.71899999999999 106.477 29.7422
137.607 105.574 29.7422
119.56100000000001 105.574 29.7422
87.5274 105.574 29.7422
59.554699999999997 103.77 29.7422
60.908200000000001 103.318 29.7422
162.87299999999999 101.965 29.7422
72.1875 101.965 29.7422
71.7363 101.965 29.7422
65.871099999999998 101.965 29.7422
54.140599999999999 101.965 29.7422
53.689500000000002 101.063 29.7422
94.294899999999998 97.001999999999995 29.7422
161.971 96.550799999999995 29.7422
163.77500000000001 95.648499999999999 29.7422
161.971 95.648499999999999 29.7422
94.294899999999998 95.648499999999999 29.7422
71.285200000000003 95.648499999999999 29.7422
65.871099999999998 95.648499999999999 29.7422
76.248099999999994 95.197299999999998 29.7422
120.46299999999999 94.746099999999998 29.7422
78.052800000000005 91.587900000000005 29.7422
161.52000000000001 89.783199999999994 29.7422
122.268 89.783199999999994 29.7422
93.392600000000002 89.783199999999994 29.7422
79.406300000000002 89.783199999999994 29.7422
73.540999999999997 89.783199999999994 29.7422
68.126999999999995 89.783199999999994 29.7422
89.783199999999994 84.369200000000006 29.7422
158.81299999999999 83.918000000000006 29.7422
124.523 83.918000000000006 29.7422
94.294899999999998 83.918000000000006 29.7422
89.783199999999994 83.918000000000006 29.7422
83.466800000000006 83.918000000000006 29.7422
77.601600000000005 83.918000000000006 29.7422
70.834000000000003 83.918000000000006 29.7422
102.416 82.564499999999995 29.7422
101.965 82.564499999999995 29.7422
155.654 82.113299999999995 29.7422
155.654 77.601600000000005 29.7422
123.17 77.601600000000005 29.7422
87.5274 77.601600000000005 29.7422
76.248099999999994 77.601600000000005 29.7422
130.84 76.699200000000005 29.7422
119.56100000000001 75.796899999999994 29.7422
83.918000000000006 75.796899999999994 29.7422
106.928 75.345699999999994 29.7422
132.19300000000001 74.894599999999997 29.7422
113.69499999999999 74.894599999999997 29.7422
149.78899999999999 73.0899 29.7422
56.847700000000003 73.0899 29.7422
150.691 71.7363 29.7422
148.887 71.7363 29.7422
136.25399999999999 71.7363 29.7422
57.2988 71.7363 29.7422
138.96100000000001 70.382800000000003 29.7422
73.540999999999997 69.931700000000006 29.7422
71.7363 66.773499999999999 29.7422
111.43899999999999 113.244 0.63281200000000004
144.82599999999999 65.871099999999998 29.7422
71.7363 65.871099999999998 29.7422
59.103499999999997 65.871099999999998 29.7422
60.005899999999997 64.066400000000002 29.7422
145.27699999999999 59.554699999999997 29.7422
64.968800000000002 59.554699999999997 29.7422
158.81299999999999 55.945300000000003 29.7422
158.36099999999999 53.689500000000002 29.7422
149.33799999999999 53.689500000000002 29.7422
155.654 53.238300000000002 29.7422
155.654 47.824199999999998 29.7422
117.30500000000001 42.8613 29.7422
97.001999999999995 42.8613 29.7422
114.14700000000001 113.69499999999999 0.63281200000000004
117.756 41.959000000000003 29.7422
98.806700000000006 41.959000000000003 29.7422
106.02500000000001 39.703099999999999 29.7422
113.69499999999999 38.349600000000002 29.7422
113.69499999999999 35.642600000000002 29.7422
106.928 35.642600000000002 29.7422
98.806700000000006 35.642600000000002 29.7422
97.904300000000006 161.971 29.109300000000001
167.83600000000001 125.877 29.109300000000001
