175.506 149.78898845237893 93.023300000000006
171.44467597086697 135.35232402913309 41.765599999999999
114.14732402913303 153.85032402913308 132.25800000000001
62.712899999999998 71.736263083900866 62.015500000000003
152.51747799582972 71.714857850527224 34.804600000000001
127.23132375621587 178.21300000000002 108.21100000000003
164.24781934821249 169.64099999999996 75.937399999999997
83.939411717403132 42.431647508126559 89.226500000000001
150.69063289461971 52.787100000000009 29.7422
87.076199995928633 182.72532387033124 75.937399999999982
144.37500000424484 73.540967456227008 113.90600000000001
60.457000000000008 84.820263083900883 57.585900000000009
116.40166323648056 27.500730069488213 54.421800000000012
98.806700000000006 175.506 124.664
63.594544251066495 143.92399999999995 55.687399999999982
87.978463083900877 31.130900000000004 73.406199999999998
85.29291438936221 38.371014389362202 86.695199999999986
110.08600000643951 41.979755748933869 35.437500000000007
113.244 79.857367452152388 123.398
63.1848600469215 87.527433858726326 41.765599999999999
86.173933876373781 79.878160046921664 25.945300000000003
124.5226633388654 198.94616641515498 68.343699999999998
93.822390959111118 131.26951932202769 1.26562
170.09200000000001 111.8913671053803 45.562399999999997
55.494199999999999 96.09956308390089 62.648400000000002
64.968800000000002 71.285236916099166 92.390500000000003
142.119 96.530044251066514 16.453099999999999
207.51752469088413 169.61952469088413 86.6952
111.89133666113459 192.62916641515497 77.835799999999992
138.9824779958297 99.236357850527241 17.085899999999999
163.34482366287409 76.248133848412849 51.257700000000014
86.173900000000003 182.273 57.585900000000002
103.79148067797236 59.124909040888902 113.90600000000002
69.00854425106651 162.87299999999999 97.453000000000017
57.298800000000007 143.47303203632308 67.710900000000009
134.89963289461969 116.854 24.046799999999998
69.910290959111109 166.05248067797237 94.921800000000005
141.23847530911587 169.21147530911583 118.33600000000001
74.443399999999997 143.92400000000001 125.297
116.40163289461969 49.628900000000002 99.984300000000005
121.8156328946197 182.72500000000002 45.562399999999997
130.84 186.31318065178752 92.390500000000017
115.04899999999999 174.17250325707207 121.49999999999997
155.63252469088411 155.63252469088411 28.476499999999994
142.11900052645933 181.37100482749014 51.890599999999999
97.022755748933506 135.80300000000003 134.15600000000001
103.29717633712595 50.982366151587144 39.23429999999999
118.67881934821249 143.92400000000001 132.88999999999999
142.119 55.945300000000003 5.0624900000000004
119.56132383889857 70.382767424658283 39.234299999999998
83.918000000000006 129.48599999999999 32.906199999999998
145.27666323648052 55.473430069488202 41.132800000000003
140.31366323648044 92.018330069488201 123.39799999999998
147.9625193220277 51.906209040888889 93.023300000000006
154.75200000000001 72.659455748933482 100.61699999999999
112.34199998767853 34.740167440267456 30.375
129.95947530911585 156.57847530911587 126.56200000000001
83.015600000000006 149.33799999999999 126.562
165.12899999999999 159.715 49.359299999999998
117.28418065178754 122.71899999999997 137.32000000000002
73.0899 135.35236710538027 122.76499999999999
119.12950748910016 76.699166100352954 18.351500000000001
101.53547799582968 91.115257850527257 35.4375
105.12300810254364 194.45500000000001 65.812399999999997
54.140599999999992 108.73163289461969 74.671800000000005
61.3808143893622 87.097614389362207 48.726500000000001
148.43633716974989 184.96048277913943 77.835800000000006
147.5115220041703 60.027342149472751 97.453000000000017
140.99150031797558 116.17650002209565 22.148399999999999
130.38900000000004 181.35018065178753 105.68000000000002
120.01196227293173 49.177700000000002 106.312
101.06333666083007 170.52216641515454 128.46100000000004
66.773499999999999 81.211036916099133 99.351399999999998
171.87585400004062 149.76749802847718 63.281199999999998
98.355499993880912 183.60617489855321 54.421800000000005
71.715508169037548 44.665966163923116 77.835800000000006
106.94947530911585 187.2145246908841 55.054599999999994
117.30500774267273 193.102 91.124899999999982
84.841714389362195 33.408114389362197 55.687399999999997
140.76636710538031 155.20300000000003 22.148399999999999
65.89185574893348 102.41599999999998 110.10899999999999
87.505964397983021 140.33515126777993 130.99199999999999
177.53649951985889 121.59050075807428 101.25
88.880899999999997 188.13900000000001 74.671800000000005
62.261666141273686 73.971439953078502 70.242099999999994
98.806736916099126 189.04100000000003 70.874899999999997
77.150400000000005 134.01882510144642 32.906199999999991
172.3688193482125 130.84000000000003 108.21100000000003
70.382800000000003 54.140563083900886 87.960800000000006
172.34799999999996 109.18436710538028 44.929600000000001
107.85082366287403 29.777433848412855 60.117099999999986
153.39767597086697 122.26832402913308 21.515600000000003
147.30750082321032 176.63349927164955 106.94500000000001
62.712899999999998 62.261663083900892 76.5702
66.794944831081239 64.044955168918733 28.476499999999998
64.517599813612733 143.47302106924781 25.945300000000003
171.89699999999999 89.332136916099131 70.874899999999997
66.773532575341704 143.02232383889853 24.6797
174.15199999999999 137.15600000000001 114.539
112.32118065178754 165.58000000000007 25.945300000000003
84.820266141273677 35.621839953078499 59.484300000000005
164.69947799582971 71.714857850527224 89.85929999999999
124.07201284809589 27.0703 77.203000000000003
64.538361479934693 96.550799999999981 36.070299999999996
63.594530069488208 147.98366323648054 55.054600000000001
156.53617633712594 49.17766615158714 48.726500000000001
94.294899999999998 183.62700000000001 89.859300000000005
64.517600000000002 64.066363083900868 70.242099999999994
67.696555748933477 162.87299999999993 96.187399999999982
60.928961479934713 66.322299999999984 73.406200000000013
166.91285400004062 110.10750197152282 113.273
164.24847530911589 165.6014753091159 94.288899999999998
101.514 32.935600000000001 30.375
97.453236916099101 184.98099999999997 96.187399999999997
66.322299999999984 101.94417489855356 25.9453
93.843799999999987 70.382763083900855 43.663999999999994
107.82999014220771 46.019500000000001 103.148
91.587900000000005 179.566 111.375
104.22101829442494 26.619099999999996 63.913999999999987
139.41200000000001 64.517600000000002 105.047
92.511087524641624 133.99799999999996 14.5547
156.12683358484497 111.89133666113457 123.39799999999998
135.80301294982601 112.7930191469993 132.25800000000001
139.863 66.322299999999998 114.539
106.94947530911588 151.57252469088417 22.148400000000002
97.227599999999981 29.551799999999993 67.078000000000017
212.97448067797234 90.255809040888877 31.640599999999999
115.95098458330877 115.50000909157725 137.31999999999999
112.342 77.129644251066495 125.29699999999998
170.54300000000003 148.43632375621587 53.789000000000001
158.36099999999999 78.052836916099125 38.601500000000001
116.17649990893183 116.17650010726716 133.523
101.51399043416414 130.84001317835273 6.3281200000000002
173.25000000000003 96.09956308390089 79.101500000000016
139.86299999999997 35.21215574893349 40.499899999999997
144.60050055798004 185.65750068181944 89.226500000000001
142.56967616110151 60.005932575341717 40.499899999999997
101.51399999999998 39.682312475358366 91.7577
108.28099999999999 120.03281934821248 8.2265499999999996
147.98400000000001 186.334 93.656099999999995
92.26469999956025 80.98540010805992 44.929599999999994
100.15998140523368 115.95098466066784 6.9609300000000012
167.38499999999999 160.61699999999999 74.671800000000005
169.19032375621589 163.32400000000001 80.999900000000011
100.58952200417029 28.402357850527242 58.218699999999998
158.3395246908841 171.42352469088414 61.382700000000007
206.18600000000001 170.994 84.796800000000005
94.767509040888882 133.52551932202766 6.3281200000000002
57.2988 126.77863289461968 72.773300000000006
169.86649908136317 113.46949956945839 36.703100000000006
54.140599999999999 105.12300810254359 67.710899999999981
117.756 38.328844251066506 89.859300000000005
111.43866333886537 183.64783358484502 106.94499999999999
55.042999999999999 130.84 92.390500000000003
126.55349992455567 188.81550039274242 50.62489999999999
101.96500000000003 38.780044251066521 90.492100000000008
167.81452469088416 127.25247530911585 27.843699999999998
117.28352469088416 195.83047530911588 70.874900000000011
165.58000000000001 157.00800000000001 58.851500000000001
151.143 80.308599999999998 9.4921799999999994
144.37499285422669 91.587896331360128 122.76500000000003
166.934 82.564536916099115 13.921900000000001
87.978467452152401 180.91999999999996 99.98429999999999
111.2135 193.32749999999999 82.898300000000006
158.36099999999999 60.908200000000001 56.3202
89.557649999999995 81.436549999999997 15.1875
77.376000000000005 76.924800000000005 22.781199999999998
99.257767452152422 146.631 14.554700000000002
174.58348277913944 129.48566283025016 45.562399999999997
166.482 83.918000000000006 100.617
79.878811717403153 60.027347508126567 98.718600000000009
63.615332547847586 100.15999999999997 26.578099999999999
67.67580025484412 154.30099497465991 45.562399999999997
69.029300000000006 147.55382510144642 26.578099999999996
76.699167443822859 66.773532556177145 19.617199999999997
122.26833666113461 180.489833584845 108.84399999999999
170.99400000000003 86.624963083900866 75.304599999999994
150.24000000000001 182.70449674292786 93.656099999999981
161.52000000000001 60.908200000000001 72.140500000000003
143.45152200417033 79.427742149472763 18.351500000000001
61.359400000000001 78.052836916099125 68.976500000000001
178.66399999999996 112.81381934821245 86.062399999999997
103.29652469088413 123.14852469088414 16.453099999999996
130.38902424063261 180.46899954553925 105.04699999999998
122.71898869667616 197.16200000000003 59.484300000000005
140.76599999999999 126.779 22.781199999999998
64.045608169042822 81.662066146426199 98.085800000000006
105.57398317527141 182.27300000000002 117.07000000000001
160.61699999999996 168.73767624378414 60.117100000000008
143.69849995852528 120.23749982356823 30.375
109.18436710538028 184.07799999999997 113.90599999999998
77.580190959111093 117.28351932202763 121.49999999999999
75.571299854009325 44.891600041165454 82.265500000000003
82.564499999999995 180.91998856734244 70.242099999999979
107.85082366287403 49.177666151587147 41.765599999999999
60.908199999999994 139.863 107.578
103.31766333886537 187.21516641515495 58.851499999999987
128.60483358484501 119.10866333886537 132.25799999999998
95.197299999999998 40.154299999999999 90.492099999999994
76.22669095911111 170.11348067797238 106.94500000000001
81.640652491873425 91.56648828259685 117.70299999999999
140.3136762437841 123.16999999999999 14.554699999999999
171.01550197152281 161.08914599995941 94.921800000000005
168.06149949270497 114.82349951230169 111.37500000000001
165.12899999999999 80.759799999999998 91.7577
148.43633666113462 182.74583358484497 87.327999999999989
170.994 138.96103364537612 37.968699999999998
94.767509040888882 149.76751932202762 138.58599999999998
95.175890959111086 185.90448067797232 81.632699999999986
134.44900503663445 185.88300275930001 94.288899999999998
124.97532383889852 75.345667424658274 0.63281199999999993
69.910930069488217 129.93833676351949 122.765
154.5265 178.8895 96.187399999999997
128.58399999999995 129.4856762437841 136.05499999999998
69.4590856106378 60.4784143893622 46.828100000000006
116.40163289461969 34.740200000000002 92.390500000000003
61.810600000000008 113.69463289461967 103.148
55.494232558954387 74.443400000000025 17.085900000000002
76.699166151587178 150.67017633712598 28.476500000000009
172.79900519153858 131.74197735554054 43.031199999999998
124.97533671236857 79.427101733716469 38.601500000000001
167.40647530911582 167.40647530911582 87.96080000000002
116.87483358484546 129.48566333916989 138.58600000000001
121.81567597086695 151.14332402913303 134.15599999999998
156.55699999999999 92.941400000000002 3.7968700000000002
120.01199999999999 191.31781934821245 80.999900000000011
179.566 121.81563289461972 96.187399999999997
58.180444251066504 131.74199999999996 103.78100000000002
155.67514599995937 169.21150197152284 53.156199999999998
101.965 114.14736710538031 26.578099999999996
122.71899472690899 27.972699999999996 67.077999999999989
70.382766151587134 149.76817633712591 31.640599999999992
143.02199999999999 33.386699999999998 46.828099999999999
133.07518065178752 126.32799999999999 133.523
108.28100000000002 48.726632547847586 39.867100000000001
65.871100000000013 65.419863083900879 76.5702
176.85900000000001 128.13301216493818 69.609300000000005
87.527433899647065 179.58650748910017 102.51500000000001
142.14050197152284 116.83285400004061 20.8828
154.73117489855315 83.466799993880912 110.10900000000001
143.45151932202768 35.664009040888899 69.609300000000005
57.298800000000007 118.65801066979577 82.898300000000006
179.56600000000003 149.78897524668201 85.429599999999994
111.43899999999999 34.740200000000002 20.25
110.51552469088416 106.90652469088413 136.68700000000004
120.01200392636318 114.59799065158393 3.1640600000000001
177.78347530911583 117.73452469088413 101.883
127.90749969618255 189.26649933678036 83.531099999999995
156.5355246908841 167.81452469088416 51.2577
167.38499999999999 92.490336916099139 48.726500000000001
117.77750197152282 174.17314599995936 36.703099999999999
175.03352469088418 104.69347530911587 97.453000000000003
117.30500001819107 47.393887524644391 100.617
159.69417633712595 56.847733848412872 68.343700000000013
57.749999999999993 115.04901066724632 36.703099999999999
147.08199999999999 189.94300000000001 76.5702
60.00589999999999 106.47736710538031 9.4921799999999994
142.59114863611561 53.710968761185136 44.296799999999998
161.971 121.81567624378417 36.070300000000003
165.12899999999999 121.81600000000002 14.554699999999999
161.52032386646661 73.992199999999968 49.992100000000001
90.234399993880899 185.41117489855313 93.656100000000009
166.95547530911588 165.15047530911585 87.328000000000003
76.248099999999994 154.75200000000001 29.109300000000005
157.88852469088417 107.40047530911588 115.172
94.294867412675842 124.97532385018576 135.422
70.382766146426206 74.915391830957148 43.663999999999994
133.547 132.19300000000001 16.453099999999999
71.285232575341709 127.23132383889849 122.765
126.77863289461965 25.265599999999999 54.42179999999999
180.018 125.42600811006901 70.874899999999982
86.624966151587117 182.25217633712595 86.062399999999982
152.04499999999999 182.72499999999999 98.085800000000006
128.13300000000001 177.78281934821246 40.499899999999997
98.355500000000006 115.95099999999998 32.906199999999998
71.7363 172.34800000000001 79.101500000000001
153.37652469088414 146.60952469088414 19.617199999999997
92.962155748933867 139.86299999356046 24.046799999999998
117.53050008777454 149.11250056099985 138.58600000000001
87.527432556177132 90.685632556177111 26.578099999999996
91.157460046921514 42.861266141273688 3.1640600000000001
150.69063289461968 75.345699999999979 28.476500000000001
83.241200166331808 75.571299876645568 46.195300000000003
81.662067456227007 178.2130000042448 97.452999999999989
151.16382366287399 41.507766151587148 69.609300000000005
135.803 101.98581934821247 129.72599999999997
158.79249674292791 110.5369999996346 118.336
174.60400000000001 101.965 82.898300000000006
138.05936710538029 58.652399999999993 107.578
77.128990959111121 173.72248067797233 106.94499999999999
73.089932547847582 134.44900000000001 46.195299999999996
129.46517489855353 64.517600000000002 41.132800000000003
175.95699999999999 121.36496027041662 109.47599999999997
63.164099999999998 63.164099999999998 33.539000000000001
87.054790959111102 181.39248067797234 93.023300000000006
55.494200000000006 136.70502271348587 60.749899999999997
55.494199999999992 104.67199215112939 84.79679999999999
74.464814389362189 51.906214389362198 86.062399999999997
127.23136710538027 192.19899999999998 90.492099999999979
149.33799999999999 178.21299999999999 94.288899999999998
131.74199999999999 54.140599999999992 109.476
104.24182510144644 77.601599999999991 41.132799999999996
144.82600000424483 91.136667456227016 122.765
118.65801844126143 129.03499999595337 139.851
151.59399999999999 181.822 84.164000000000001
141.21700000000001 192.65000000000001 67.078000000000003
94.316314389362191 43.291085610637801 20.8828
124.07200001819106 73.520212475355621 37.968699999999998
149.33799999999999 182.273 102.515
92.469539953078495 78.503866141273676 10.124999999999998
89.332133858726337 46.942660046921503 17.085899999999995
130.84 150.67018065178752 134.15599999999998
157.00800000000001 50.510544251066513 49.992100000000001
154.30099999999999 180.018 101.25
118.67950197152281 148.00514599995941 8.8593600000000006
60.887438520065302 77.150399999999991 76.5702
96.078152491873439 38.779388282596855 32.273400000000002
117.2835193220277 48.296809040888895 105.68000000000002
147.53299999999999 54.591799999999999 29.109299999999998
154.32247530911582 102.39452469088413 118.33599999999998
64.496838520065296 60.908199999999994 75.304599999999994
93.843800000000002 187.68799999999999 54.421800000000005
163.54949956199204 172.12250058849799 79.734300000000005
152.947 53.23830000000001 75.937399999999997
129.05647530911588 170.11347530911587 117.06999999999999
151.143 109.63500000000001 19.6172
62.261666151587136 138.48917633712597 27.210900000000002
66.301530069488194 161.06766323648051 95.554599999999979
131.74199999999996 156.08549674292786 128.46100000000001
61.789185610637801 84.3477856106378 74.671800000000005
130.36817633712556 90.685633865974467 21.515600000000003
104.22099999999999 192.21981934821244 82.898299999999992
162.42199999990427 162.87298029599575 54.421799999999998
99.730501971522841 119.1301459999594 132.25800000000004
62.240912475358371 152.49600000000001 56.320200000000007
177.31099999999998 142.5696328946197 82.265500000000003
148.887 122.71899999999999 34.804600000000001
177.78281934821246 112.79299999999998 73.406199999999984
114.14733676351949 29.756630069488214 79.734300000000005
140.31367624378413 138.96100000000001 136.68700000000001
76.248099999999994 156.55699999999999 30.375
124.07198666111084 88.880912671330265 129.09399999999999
143.24749939212944 183.85250098455569 89.226499999999987
103.29717489855356 98.355499999999992 18.984400000000001
69.029300000000006 122.26836710538029 120.23399999999998
163.79614599995941 101.49249802847719 25.312500000000004
127.66052469088413 105.59547530911586 136.05500000000001
104.67198317527121 28.423800000000004 43.664000000000009
130.81852469088415 118.67947530911586 134.78899999999999
175.506 124.52263289461969 63.914000000000001
115.04900000000001 33.858655748933487 82.265500000000003
58.652432543772989 110.98799999575519 23.414000000000001
79.406332556177162 50.982367443822852 51.890599999999999
101.06332375621587 190.846 69.609300000000019
162.89447530911585 146.15852469088412 33.539000000000001
77.128990959111121 171.91848067797235 60.749900000000004
66.300885610637806 46.900485610637809 47.460900000000002
72.1875 166.93432386646663 98.718600000000009
125.87700001819101 58.673187524644383 112.64
90.234399999999994 184.078 54.421799999999998
149.76752469088416 158.3395246908841 122.133
57.75 74.443399999999997 17.085899999999999
158.81333716974987 132.62448277913941 13.289
58.201199999999993 135.803 41.765599999999999
112.342 155.18218065178749 132.25800000000001
82.564533848412879 122.73982366287403 25.945300000000003
147.55447799582967 37.876957850527241 61.382699999999993
124.07201101833391 27.521500343834614 72.773300000000006
85.701285610637811 55.0215856106378 101.883
159.26400000000004 100.15999258544913 1.26562
153.398 75.345699999999994 110.74199999999999
148.43632386646658 72.1875 110.10900000000001
140.33451722086059 129.48566283025016 136.05500000000004
120.48382510144646 55.043000000000013 39.234299999999998
65.399108169042819 58.652433853573775 36.703100000000006
96.572209040888879 188.11751932202765 62.648399999999995
65.440655748933494 118.65800000000002 113.90600000000001
92.962809040888885 162.85151932202766 131.62500000000003
59.103499999999997 139.41200000000001 107.578
77.623035602016984 174.58284873222004 106.94499999999999
79.406300000000002 52.336036916099125 53.789000000000009
72.166088282596846 50.960952491873435 83.531099999999995
107.37900000000002 31.582000000000004 26.578099999999999
133.32150037355419 181.59649987059839 103.78100000000002
63.615333865974456 138.53082366287438 17.718699999999995
153.84999999999999 45.117199999999997 42.398400000000002
152.96847799582969 57.277357850527245 91.757699999999986
87.527432547847567 177.762 51.890599999999992
165.60147799582973 98.828142149472768 34.804600000000001
131.762833584845 108.73166333886542 33.539000000000001
84.820300000000003 156.55699999999999 126.562
72.61728828259686 45.998052491873437 74.039000000000001
131.74199999999999 95.648532547847594 22.148399999999995
170.52152469088415 106.49847530911588 108.84399999999999
118.20697885246634 33.38669999999999 90.492099999999994
112.56750000000004 168.51250000000002 29.742199999999997
157.00800000000001 72.1875 104.41399999999999
65.871099999999998 96.550799999999995 28.476500000000001
147.96252469088415 174.1305246908841 106.94499999999998
157.00800000000001 180.91999999999999 67.710899999999995
83.938761479934698 43.763699999999986 51.2577
66.77353254784758 107.82999999999998 30.374999999999996
175.97847530911591 104.19952469088415 93.656100000000009
68.148447508126537 61.789188282596854 40.49989999999999
89.332132547847564 183.1759999999999 98.718599999999967
96.078157850525329 189.92152200416803 74.038999999999987
106.47733666113461 160.59616641515498 135.42200000000003
83.466800000000021 133.97717489855353 30.374999999999996
70.834000000000003 52.787067441045622 56.320199999999986
137.13516641515497 138.05933666113461 132.88999999999999
162.89447530911585 168.30847530911589 91.757699999999986
101.94352469088416 190.41647530911587 75.937399999999997
68.57810000000002 52.78706308390089 74.039000000000001
103.77033671236858 34.719398266283527 26.578099999999999
172.32649802847723 158.79185400004059 98.718599999999981
146.1799866611106 56.396512671330179 27.843699999999998
121.81567624378415 128.13300000000004 1.8984399999999997
83.015600000000006 184.078 81.6327
65.419867429100236 65.871100011746762 84.796800000000005
134.22350000000003 123.84650000000002 133.52299999999997
116.40163289461969 183.17599999999999 114.539
106.4773367123686 34.309901733716465 25.945300000000003
115.95098839259785 35.642600000021936 85.429600000000008
175.506 143.47301494520141 71.5077
115.95099999999998 34.760955748933497 84.796800000000005
141.66799999997059 185.88301889031803 90.492099999999979
159.71499999999997 99.709073891286138 24.046800000000001
88.880899999999997 166.03100000000001 33.539000000000001
152.04500000022003 180.0183237560309 98.718599999999995
120.48381934821244 162.87299999999993 127.82799999999999
97.904263083900886 184.52900000000002 98.718599999999981
123.17000598461158 188.59000000000003 87.960800000000006
69.480500017342166 55.924506733250325 54.421799999999998
172.79900000000001 115.5000327011022 40.499899999999997
133.54699999999997 116.83349674292788 28.476499999999998
93.392600000000002 45.117199999999997 99.351399999999998
88.429699999999997 37.898400000000002 85.429599999999994
127.23136710538027 78.503899999999987 28.476499999999994
173.25 132.6453671053803 41.765599999999999
177.29048277913941 116.85433716974985 67.078000000000003
165.58002314576046 162.87297723765798 60.749900000000011
170.09200000000001 98.355500000000006 93.023300000000006
156.55699999999993 94.274112475358365 20.249999999999996
150.69063289461968 165.58000000000001 121.49999999999999
102.41600000000001 180.03881934821248 115.80500000000002
92.039100000000005 35.191400000000002 79.101500000000001
143.47300000000001 176.40799999999999 116.43699999999998
101.063 194.45500000000001 78.468699999999998
121.59049987079212 104.89750016727449 15.8203
87.978499999999997 171.44499999999999 113.90600000000001
166.95482510144649 95.197299999999998 37.968699999999998
156.55698377955434 101.96499999999999 3.7968699999999993
60.026701733716472 132.19266328763143 24.046800000000001
156.10599999999999 51.433599999999998 52.523399999999995
124.97499999999999 132.64500000000001 5.0624900000000004
122.2474910998786 75.796899999999994 6.3281200000000002
72.1875 162.422 52.523400000000002
108.28099999999999 153.39767624378413 20.882799999999996
79.857399999999998 74.443399999999997 114.539
113.69463289461969 50.982400000000005 103.78100000000002
142.59051722086059 111.43866283025015 29.109300000000001
150.24000271261303 169.64099529162647 117.70299999999999
159.24251932202765 80.330009040888882 99.984300000000005
101.96500807012939 189.041 67.710899999999995
115.50000000643951 63.184855748933863 113.90600000000001
117.75602963311066 175.95699999999997 34.171799999999998
86.173933848412844 181.35017633712596 93.656099999999995
99.257800000000003 75.345699999999994 124.664
125.40516641515499 111.43866333886538 27.210899999999999
75.796899999999994 142.119 23.414000000000001
94.724685610637806 66.300885610637806 110.10900000000001
166.03100000000001 152.947 43.031199999999998
170.09200000000001 117.75606352111325 113.27299999999997
57.749998895780216 131.74199497609908 103.78099999999999
106.47733716974982 148.00451722086058 15.820299999999994
125.426 116.8543237562159 7.5937400000000013
121.8156328946197 182.72500000000002 43.664000000000001
118.65801066979571 38.800800000000002 94.921800000000005
160.61699999977989 174.15167624396906 83.531100000000023
143.92400000000001 126.77867624378413 24.046800000000001
162.89448067797269 67.65439095911087 78.468699999999998
179.11500000000001 134.89963289461969 67.710899999999995
56.396500000000003 108.28100576379772 93.023300000000006
162.422 135.35236710538027 118.33599999999998
78.503866100935369 174.17250748910024 99.351399999999998
69.953147508126563 46.040911717403148 58.218699999999991
163.34481934821252 101.51399999999998 24.046800000000001
120.91399999999999 75.345667452152384 30.375000000000004
137.607 29.777400000000004 75.304599999999994
84.820300000000003 124.97536710538026 131.625
158.36099999999999 60.908200000000001 55.687399999999997
90.234399999999994 84.369236916099155 29.109300000000005
98.334085610637814 80.73838561063782 121.5
153.82949251089974 47.373133899647037 63.281199999999998
92.490300000000005 127.682 25.3125
147.08198373928835 38.349595802206935 51.890599999999992
65.892509040888882 138.08048067797233 17.718699999999995
166.93400000000003 89.332136916099131 18.351500000000001
174.15200000000004 104.67199215112937 64.546800000000019
149.35882366287402 64.066366151587118 44.296799999999998
71.510750123822447 47.59865027830719 75.304600000000008
72.638695562556819 135.80298591739273 38.601500000000001
125.20050071025254 185.65749967867302 101.25
62.240912475358371 147.53299999999999 49.359300000000005
159.694166415155 176.85866333886543 84.796800000000005
104.67198317527117 193.553 56.953099999999992
80.739039953078489 53.689533858726321 14.554700000000002
90.685632587324164 182.72532385018576 59.484300000000005
145.25616641515498 121.81566333886542 129.726
144.82599999999999 116.85432375621583 18.984400000000004
118.658 115.04900000000001 19.6172
95.197299999999998 29.798193266746893 56.3202
124.52263289461969 24.814500000000002 55.054600000000001
131.74196502008587 191.74800000000002 89.859300000000019
105.574 39.272787524641629 95.554600000000008
69.953147508126577 45.138611717403144 44.929600000000001
80.780555748933509 120.01200000000001 26.578099999999996
71.285200000000017 158.81336710538025 39.234300000000005
143.92400000000001 36.093800000000002 53.156199999999998
55.945299999999996 70.382763083900855 20.249999999999996
144.82599999999996 125.42600811006901 128.46099999999998
137.607 57.75 109.476
173.25 153.85032375621589 74.039000000000001
69.029300006119129 115.02817489855317 29.7422
92.941363083900882 170.09200000000001 36.07030000000001
117.30500774267263 184.98099999999994 111.37499999999997
125.8769921509253 186.785 47.460900000000002
184.52899999999997 126.77863289461968 92.390500000000003
96.550799999999995 91.136667441045617 127.19500000000001
73.540999999999997 143.02236710538034 128.46100000000004
138.93949802847723 143.00085400004059 16.453099999999999
206.20683358484501 171.44466333886538 49.992099999999994
63.636101733716451 143.02233671236854 48.726499999999994
138.98248067797235 61.78919095911111 105.047
66.322299999999998 156.53617489855353 46.195299999999996
117.75602963311056 182.72500000000002 40.499899999999997
104.672 69.480500000000006 122.765
78.525309040888899 162.40051932202766 117.70300000000003
145.27699999999999 95.197299999999998 17.718699999999998
92.962814389362194 55.966714389362203 46.195300000000003
88.880899999999997 32.935600000000001 68.976500000000001
121.81566323648056 32.463630069488211 80.367099999999994
125.87699999999997 50.059344251066506 44.296799999999998
88.880899999999997 120.01199999999999 31.0078
166.25649956944366 167.6105004087818 70.242099999999994
127.682 29.7774 74.671800000000005
167.38499999999996 78.052832547847615 86.6952
169.19 144.375 36.703099999999999
159.26400000000001 55.494199999999999 78.468699999999998
175.05500000000001 111.8913671053803 99.98429999999999
65.871100000000013 110.55782510144647 33.539000000000009
152.06648067797235 48.253990959111114 81.6327
73.0899 165.58000000000001 71.5077
83.015600000000006 181.822 70.242099999999994
173.70099999999999 87.978463083900877 80.999899999999997
179.566 111.89100000000001 98.718599999999995
77.150399999999991 47.844961479934703 51.2577
176.88014599995941 148.90850197152281 98.718600000000009
182.72499999999999 137.15600000000001 84.164000000000001
137.60667597086692 138.05932402913302 16.453100000000003
158.36067597086691 129.48567597086691 33.539000000000001
99.709073891286138 25.716799999999999 67.710899999999995
113.69467597086698 140.76632402913305 140.48400000000004
150.24000000000001 58.6524 99.984300000000005
173.25 150.24000000000001 72.773300000000006
142.56999999999999 55.042999999999999 103.78100000000001
158.36099999999999 170.994 50.624899999999997
161.06800000000001 66.322299999999998 87.960800000000006
102.41599471819553 70.834000000000003 117.06999999999999
170.994 127.682 31.007799999999996
178.21300000000002 144.82605790437705 70.874899999999997
167.38499999999999 135.35232375621587 39.867100000000001
110.988 32.93563254784759 76.5702
75.796899999999994 36.093800000000002 63.281199999999998
95.648533858726353 55.063760046921502 43.664000000000001
119.56133666113458 149.76816641515495 8.2265499999999996
64.066400000000016 79.85736308390085 96.820199999999986
77.150400000000005 170.09200000000001 114.539
144.37499999999994 187.23567624378407 79.101499999999973
57.749999999999993 133.99798377955369 72.773300000000006
175.05500000000001 107.82999999999998 91.124899999999997
62.261666141273658 60.928960046921489 20.249999999999996
152.0235246908841 143.45152469088416 126.56200000000001
108.28100000000001 82.113299999999995 15.1875
59.103467424658284 103.77032383889851 95.554599999999994
106.7025 111.2135 24.046800000000001
99.257800000000003 32.935600000000001 39.234299999999998
95.648536916099147 171.89700000000002 37.968700000000005
61.359400000000001 126.77863289461968 107.578
127.682 45.117199999999997 102.515
61.359400000000001 60.457000000000001 35.4375
95.648499999999999 148.887 132.25800000000001
114.14700000000001 124.97536710538026 6.9609299999999994
162.8944779958297 76.677757850527243 14.5547
120.46299999999995 78.524655748933483 122.76499999999999
133.56850197152283 142.59114599995937 139.851
73.519557850527235 124.5015220041703 32.273400000000002
86.153139953078508 76.699166141273679 46.828099999999999
70.382800000000003 58.6524 94.288899999999998
120.4629924772852 192.19900000000004 93.656100000000009
110.53700000000002 175.93618065178751 122.76499999999997
103.77032375621586 188.13900000000001 63.281199999999984
156.53552469088413 173.22852469088411 107.57800000000002
103.31766282992264 106.04551722086015 31.640600000000003
117.75606352111299 198.065 70.242099999999994
169.21150197152281 161.08914599995938 93.656100000000009
58.2012 122.71899472690902 53.789000000000001
97.453232568112668 95.648532544326244 129.09399999999997
118.18618065178755 109.63500000000002 16.453099999999996
65.398452491873428 98.785288282596852 108.21099999999998
66.794301733716466 129.9383367123686 118.96900000000001
112.32052469088413 162.89447530911585 25.3125
75.817655748933859 173.7010000064395 80.999900000000011
152.51747799582975 62.240257850527264 89.859300000000019
160.61699536828135 55.042999415908611 59.484300000000005
144.80452200417025 59.082057850527235 24.679699999999997
114.12585400004063 170.97249802847719 32.273400000000002
107.37900139099847 138.96100502723016 135.42199999999997
82.113291620809051 179.11501978063399 84.79679999999999
162.85152469088413 142.09752469088414 24.046800000000001
129.48567597086696 119.56132402913306 136.05500000000001
160.61699503200748 66.322300080983553 14.554700000000002
128.584 77.601600000000005 38.601500000000001
177.762 134.89963289461969 100.617
164.65717633712595 84.369233848412861 98.718600000000009
130.38900000000004 185.86218065178755 105.047
64.538355748933512 108.28100000000003 0.63281200000000015
136.47949992433951 181.59650085560932 101.88300000000002
61.832042149474645 107.35752200416805 34.804600000000001
164.22732386646661 75.796899999999994 10.7578
163.77500000000001 142.5696328946197 124.66399999999999
156.98717633712596 71.285233848412872 96.8202
110.55848067797236 34.267690959111114 27.843700000000002
121.81567597086698 182.27267597086694 103.78099999999998
133.99799999999996 70.403555748933471 113.90599999999999
166.934 118.20699013450628 116.437
132.19300000000001 30.228499999999997 76.5702
70.362006733253125 74.443399999999997 97.453000000000017
170.54300000000001 103.318 106.94499999999999
154.75200000000001 113.26481934821246 34.804600000000001
167.83601333888976 77.601612671330187 84.164000000000001
60.457000000000001 112.34198773125669 108.84399999999998
174.60400000000001 138.05936710538029 58.218699999999998
70.382800000000003 69.480500000000006 90.492099999999994
87.5274 181.37100000000001 68.343699999999998
162.422 141.66800000000001 124.03100000000001
63.636742149472759 156.5355220041703 58.218699999999998
119.1086632364805 49.608130069488205 101.88299999999998
133.99798377955389 90.234400000000008 20.882800000000003
114.59799470815217 32.033200000000001 88.593599999999995
58.201200000000007 145.27663289461969 61.382700000000014
69.480491840814068 166.03099999995953 79.10150000000003
162.44348067797236 84.347790959111123 99.351399999999998
70.85541438936221 67.246014389362202 98.718599999999995
130.86082510144644 88.880899999999997 127.828
100.59017489855314 77.601599993880896 27.210900000000002
97.453236916099115 33.386700000000005 87.960800000000006
107.37899999999999 153.39767624378416 20.882799999999992
92.49033384841286 178.68482366287404 112.64
95.648532547847594 189.49199999999999 78.468699999999998
77.601600000000005 74.443399999999997 112.64
109.40949952146629 152.27050007221516 133.523
162.87299999999999 77.150400000000005 100.617
142.119 180.03881934821243 49.992100000000001
139.86299897484218 178.66399568264805 110.10899999999998
91.587900000000005 182.72532386646665 58.218699999999998
82.564499999999995 172.79900000000001 57.585900000000002
68.126999999999981 79.85736308390085 94.288899999999984
120.91399999999999 74.464155748933493 26.578099999999996
129.26049989738755 121.59050002713911 6.3281200000000002
108.73163289461968 119.56099999999999 6.9609300000000003
62.261667443822837 61.81063255617714 60.74989999999999
76.248099999999994 72.1875 108.211
59.10349999999999 110.08601829443364 91.124899999999982
173.70099999999999 103.77036710538029 52.523400000000002
103.31766333886542 191.768833584845 77.203000000000003
113.69467597086695 187.23567597086694 97.453000000000003
143.02199999999999 169.64099999999999 36.070300000000003
161.94952200417032 74.916042149472759 89.226500000000016
114.59799999999998 168.738 26.578099999999996
121.36499247109201 197.61300000000003 58.218699999999998
157.91000000000003 139.39118065178755 17.085899999999999
147.98400000000001 90.234399999999994 122.765
97.453199999999995 115.04900000000001 34.804600000000001
155.20300000424481 47.824167456227009 60.749899999999997
69.953142149472768 160.59552200417031 58.851499999999994
157.91 129.48563289461967 129.09399999999997
62.240252491873434 57.771411717403147 52.523399999999995
152.02351932202765 51.863390959111115 38.601500000000001
134.89967624378417 178.21299999999997 110.74199999999999
114.57718065178756 133.99799999999999 136.68700000000001
137.58552200417031 60.435557850527246 1.8984399999999997
57.75 122.26836710538029 46.195300000000003
71.75706004692168 78.503866123626239 33.538999999999994
110.98800373602803 108.28101588432001 133.523
142.56967624378416 110.53699999999999 130.99199999999999
63.164099999999998 99.237006733253125 22.781199999999998
109.18436710538028 178.21299999999997 114.53899999999997
86.62496308390088 35.191400000000002 75.937399999999997
101.514 118.67881934821244 12.656199999999998
68.556657850527245 125.4045220041703 21.515599999999996
152.94700001232144 44.214932559732546 66.4452
150.24001333888981 94.746112671330209 120.86699999999999
67.224599999999995 151.143 120.23400000000001
73.089936916099148 112.34200000000001 36.07030000000001
89.761752491873438 63.142688282596858 112.008
60.4784143893622 80.330014389362205 70.874899999999997
101.96501729901603 28.875 76.5702
151.14333666113464 120.44216641515497 21.515599999999999
103.77033666113459 192.62916641515497 70.874899999999997
157.93150197152278 163.79614599995941 120.23399999999998
63.615299999999998 108.73163289461968 5.6953100000000001
75.796899999999994 102.43682510144646 27.210899999999999
156.9864980284772 179.99685400004063 81.6327
134.89967624378411 178.21299999999999 111.37499999999999
64.990242149474639 159.69352200416802 84.79679999999999
164.2273238501858 65.419867412675842 65.179599999999979
179.566 127.682 96.8202
73.540999999999997 105.57399215112947 117.06999999999999
182.273 124.97536710538026 92.390500000000003
120.01200000000001 106.49781934821246 28.476500000000001
147.06052200417028 52.765657850527255 5.6953100000000001
61.380160046921667 60.456966123626245 60.749899999999982
154.27951932202762 55.064409040888904 86.695200000000014
65.892514389362205 87.999914389362203 7.5937400000000013
117.75602963311066 191.74799999999996 89.226500000000001
76.699200000000005 177.762 75.304599999999994
63.636742149472745 109.20547799582968 8.8593600000000023
145.70849109987861 58.201199999999993 43.031199999999991
97.474001733716491 132.64533671236862 10.757800000000001
175.05500000000001 92.490336916099139 81.632700000000014
85.497100000000017 86.850600000000014 123.398
89.783199999999994 188.59 87.328000000000003
159.24317633712556 57.298766134025513 64.54679999999999
110.53700816794527 119.10899999999998 7.5937399999999986
114.14732402913306 121.81567597086698 136.05500000000001
69.0078856106378 69.050714389362199 53.789000000000009
81.637261264609393 146.80268849531947 128.46100000000001
152.92551932202764 77.171809040888874 27.843699999999998
97.453232547847591 186.334 56.953099999999999
136.70500000000001 116.85436710538029 22.148399999999999
143.00148277913939 135.35233716974983 136.05500000000001
137.15600000643948 29.305444251066124 62.648399999999995
145.7504753091159 159.2854753091159 130.35900000000004
141.21702105922435 67.675791598447631 41.765599999999999
114.57718065178753 126.32799999999999 136.68699999999998
124.54350325707209 115.50000000000001 17.085899999999999
177.29048277913944 119.10866283025017 67.078000000000003
68.127033858726307 94.725339953078503 107.57799999999999
131.291 132.21350325707215 136.68700000000001
75.796900006119102 116.38117489855316 27.843700000000002
180.48981934821245 120.01199999999999 89.226500000000001
78.955100193166246 123.62099043015206 25.3125
66.773499999999999 147.53299999999999 118.336
169.61952469088411 163.30252469088416 98.718599999999995
106.47733716974983 184.54951722086062 105.68000000000002
67.203806733250318 61.359399982657827 45.562399999999997
157.91 54.140599999999992 80.367099999999994
80.759799999999984 171.87649109987854 108.84399999999999
155.65363289461965 101.063 14.554699999999999
60.908200000000008 76.699167441045645 75.937399999999997
122.24748277913942 189.94266283025019 81.632700000000014
100.13917489855355 43.763699999999993 98.718599999999981
126.75751932202731 32.91419095911089 49.35929999999999
118.65802287162403 44.214900000000007 8.8593600000000023
59.103466100352939 142.59050748910016 50.62489999999999
141.66800000000001 41.938244251066514 45.562399999999997
90.706391830957145 74.894633853573779 44.929600000000001
151.59399999999999 73.0899 29.109300000000001
166.48200000000003 143.02236710538034 32.906199999999998
65.871100000000013 95.648536916099147 10.125
131.29099999999997 190.39532375621584 78.468699999999984
69.0292999779046 162.87299554537719 68.343700000000013
102.41599998180892 41.487012475355613 32.906199999999998
89.783199999999979 81.211036916099133 43.663999999999994
127.2313671053803 26.167999999999996 47.460900000000002
64.947385610637809 83.4453856106378 42.398400000000002
139.863 60.005899999999997 110.10899999999999
169.41550089547283 160.39150018160132 67.078000000000003
162.8515246908841 156.98652469088415 47.460899999999995
162.42200014605714 157.0080049760208 46.195300000000003
175.05500000000001 91.136663083900871 71.507699999999986
68.578067441045633 59.55469999999999 51.2577
103.77033676351948 51.003169930511795 102.51500000000001
82.564533865974468 143.04282366287444 23.414000000000005
132.64533676351948 43.291730069488203 91.124899999999997
152.96847530911583 180.03947530911589 65.812399999999997
111.86985400004063 168.2654980284772 127.19500000000001
180.91999999999999 133.096 75.304599999999994
115.04900000000001 189.51281934821247 83.531099999999995
149.31649802847721 153.82885400004059 129.72600000000003
162.87299999999999 94.746099999999998 104.41399999999999
89.783199999999994 176.40799999999999 50.624899999999997
66.322299999999998 155.18217489855357 53.156199999999998
169.41550034052003 115.27449977552914 110.10900000000001
82.564499999999995 46.019500000000001 89.226500000000001
132.19266333916988 179.54516641515451 43.663999999999994
147.98400000000001 189.041 67.710899999999995
131.74200000000002 28.403012475358373 68.343699999999998
115.5000327011023 183.17599999999999 110.742
60.928960046921517 68.127033858726335 5.0624900000000013
170.07052469088416 161.04652469088413 92.390500000000003
170.54300071119957 162.42198236979743 83.531099999999995
92.264699834515696 75.571299810171539 9.4921799999999994
110.98796227197326 23.912099999999999 63.281199999999998
64.968832556177148 95.648532556177159 36.070300000000017
152.947 53.238313856433962 81.6327
161.99248067797237 68.105590959111112 74.038999999999987
111.91182366287404 37.89836615158714 39.23429999999999
59.103499999999997 85.271500000000003 84.164000000000001
103.33850325707208 118.20699999963453 132.88999999999999
71.285200000000003 59.554699999999997 96.187399999999997
174.15199999999996 134.89963289461969 46.195300000000003
126.32805080631339 79.857399999999998 120.867
150.21918065178755 137.15600000000001 128.46100000000001
55.042999999999999 129.48563289461967 89.85929999999999
80.73838561063782 63.593885610637805 103.78100000000001
103.77032375621586 115.04900000000002 23.414000000000001
178.21299999999999 149.78899999999999 99.351399999999998
158.81332387033123 55.043000004071352 67.710899999999995
146.631 159.715 129.726
109.1843367693744 34.268330069496173 87.960800000000035
70.362012475355598 102.41599998180891 29.10929999999999
157.90999999999997 78.073587524641624 36.703099999999999
70.834000000000003 79.857399999999998 36.070300000000003
69.007864397983013 161.08915126777998 108.21099999999998
128.80949999999999 188.81550000000004 83.531099999999995
134.89966323648054 38.328830069488212 45.562399999999997
79.427742149472749 166.00952200417029 41.132800000000003
120.46299940068457 130.38900481371448 135.422
167.36352469088411 165.10752469088413 89.859300000000005
123.59952469088412 119.58247530911586 139.21899999999999
120.46299999999998 69.931732547847588 5.6953100000000001
162.87299552479084 73.992199999991684 12.6562
61.359400000000008 142.56967613353336 37.968700000000005
130.36817489855315 87.076199993880891 124.664
59.554700000000004 146.631 110.10900000000001
161.99247799582969 70.361357850527241 50.62489999999999
153.41917216034815 153.41917216034815 23.413999999999994
152.947 116.40163289461969 31.640600000000003
153.85032383889859 89.332132575341717 115.17200000000001
84.369236916099126 120.46299999999999 37.968699999999998
152.49600000000004 65.419867452152388 44.929600000000008
149.33799999999999 41.959000000000003 75.304599999999979
166.48200000000003 107.82999014220773 108.84399999999998
123.19082510144644 93.392600000000002 129.72600000000003
67.675799999999995 158.36067613353336 107.57799999999999
118.18617633712594 87.527433848412841 18.984399999999997
64.968800000000002 91.587900000000005 38.601500000000001
172.34800000000001 152.04498376142431 55.054600000000001
145.75048067797238 48.253990959111121 85.429600000000008
89.783166141273682 49.198460046921511 6.9609300000000003
79.835952491873456 41.035288282596859 52.523400000000009
175.506 114.14736710538031 98.085800000000006
68.147787524641629 102.86700000000002 113.273
114.14733676351948 30.700469930511783 42.398399999999995
181.37100483001649 120.01200009462598 86.062400000000025
160.61699999999999 134.44903340312021 125.93000000000001
63.164100000000005 137.60663289461968 115.80500000000001
126.32800001819106 34.309887524644374 81.6327
61.380160046921503 91.136666141273679 43.031199999999998
57.298800000000007 143.47303203632362 75.304600000000008
57.2988 139.41200000000001 109.47599999999998
89.352887524641631 107.37900000000002 25.9453
98.355491840616409 144.82599999648278 18.351500000000001
66.322299999999998 165.12899999999999 89.859300000000005
61.380155748933866 107.37899999356051 104.414
84.820263083900855 45.568399999999997 92.390499999999989
114.61948067797233 33.816490959111093 37.968699999999998
67.245355748933491 141.21699999999998 27.843700000000002
129.035 196.25999999999999 77.203000000000003
84.369200000000006 184.98099999999999 86.6952
133.09601321463396 180.91998095073859 109.476
87.957706733253119 63.164099999999998 1.26562
113.244 196.71100000000001 79.101500000000001
148.6614995767884 115.27449960364363 16.453099999999999
153.398 41.959000000000003 48.093699999999998
160.59552469088413 172.32652469088416 103.148
150.24000000000001 177.31100000000001 45.562399999999997
140.76636710538028 160.166 25.312499999999996
72.1875 41.959000000000003 46.828099999999999
169.18999999999997 97.453236916099101 49.992099999999994
61.359400000000001 154.30099999999999 63.914000000000001
88.429699999999997 35.642600000000002 78.468699999999998
163.30317633712596 71.285233848412872 12.023400000000001
67.675799999999981 137.60663289461968 117.07000000000001
61.810600000000001 63.615336916099132 74.039000000000016
158.36099999999999 50.982399999999998 68.976500000000001
86.646409040888898 175.48451932202767 110.10899999999999
63.615333858726309 65.891860046921522 8.2265500000000031
113.244 27.5215 56.953099999999992
173.68016641515496 124.5226633388654 107.57800000000002
103.31767616130628 76.699167424423393 27.210899999999999
99.709000000000003 142.56999999999999 19.6172
84.348430069488202 101.06333676351947 125.29699999999997
63.143339953078495 89.783166141273682 41.765599999999999
58.6524 93.392600000000002 68.976500000000001
