182.72499999999999 125.877 80.367099999999994
67.675799999999995 52.787100000000002 79.101500000000001
73.0899 156.10599999999999 33.539000000000001
80.759799999999998 170.54300000000001 55.687399999999997
131.74199999999999 180.46899999999999 105.047
167.83600000000001 135.352 31.640599999999999
130.84 192.65000000000001 82.265500000000003
141.21700000000001 34.740200000000002 76.5702
147.08199999999999 178.66399999999999 106.94499999999999
164.227 124.523 13.921900000000001
130.38900000000001 73.540999999999997 27.843699999999998
154.75200000000001 47.373100000000001 39.234299999999998
160.61699999999999 120.012 10.7578
175.95699999999999 151.59399999999999 83.531099999999995
144.82599999999999 60.005899999999997 30.375
124.97499999999999 130.38900000000001 8.2265499999999996
152.04499999999999 48.275399999999998 22.781199999999998
115.95099999999999 25.716799999999999 47.460900000000002
87.5274 179.566 94.921800000000005
164.227 124.97499999999999 14.5547
153.84999999999999 61.359400000000001 45.562399999999997
136.70500000000001 55.042999999999999 101.883
69.480500000000006 50.982399999999998 74.039000000000001
85.722700000000003 35.642600000000002 80.999899999999997
153.398 117.756 36.703099999999999
78.052800000000005 78.503900000000002 115.172
161.06800000000001 173.70099999999999 84.796800000000005
56.847700000000003 112.79300000000001 67.078000000000003
87.0762 64.066400000000002 2.53125
113.244 27.5215 50.624899999999997
64.968800000000002 57.75 41.132800000000003
65.419899999999998 85.722700000000003 44.296799999999998
129.035 138.059 17.718699999999998
151.59399999999999 182.72499999999999 91.124899999999997
135.352 178.66399999999999 43.031199999999998
69.931700000000006 49.628900000000002 78.468699999999998
148.887 46.921900000000001 81.6327
131.74199999999999 175.95699999999999 111.375
79.857399999999998 69.931700000000006 22.148399999999999
148.887 45.568399999999997 75.937399999999997
170.09200000000001 133.096 45.562399999999997
66.773499999999999 146.18000000000001 26.578099999999999
92.941400000000002 47.824199999999998 101.883
144.375 153.84999999999999 133.523
79.406300000000002 108.732 28.476500000000001
147.98400000000001 176.85900000000001 106.94499999999999
178.21299999999999 115.95099999999999 93.023300000000006
62.261699999999998 109.184 104.414
169.19 111.89100000000001 38.601500000000001
140.31399999999999 39.703099999999999 86.6952
102.416 28.4238 44.296799999999998
117.30500000000001 49.177700000000002 99.351399999999998
61.810600000000001 129.48599999999999 108.211
155.654 164.227 42.398400000000002
143.02199999999999 174.60400000000001 112.008
152.49600000000001 127.682 27.210899999999999
155.203 50.982399999999998 64.546800000000005
154.75200000000001 70.382800000000003 38.601500000000001
162.87299999999999 60.908200000000001 75.304599999999994
60.005899999999997 105.123 13.921900000000001
133.99799999999999 42.8613 97.453000000000003
120.012 109.63500000000001 134.78899999999999
121.816 53.238300000000002 17.718699999999998
164.678 101.965 105.047
154.75200000000001 46.470700000000001 34.804600000000001
105.574 115.5 14.5547
156.10599999999999 175.506 105.047
161.971 143.92400000000001 29.109300000000001
168.738 132.19300000000001 34.171799999999998
67.224599999999995 73.992199999999997 97.453000000000003
116.402 179.566 109.476
68.578100000000006 53.238300000000002 74.671800000000005
116.854 196.25999999999999 59.484299999999998
146.631 137.607 17.718699999999998
66.322299999999998 159.715 55.054600000000001
103.77 116.854 13.921900000000001
62.712899999999998 133.096 112.64
113.69499999999999 74.443399999999997 27.843699999999998
118.658 64.066400000000002 114.539
55.494199999999999 104.672 57.585900000000002
174.15199999999999 138.50999999999999 56.953099999999999
110.988 158.81299999999999 25.9453
77.150400000000005 63.164099999999998 18.984400000000001
157.459 55.494199999999999 70.242099999999994
135.803 41.056699999999999 87.960800000000006
170.09200000000001 159.26400000000001 66.4452
138.059 75.345699999999994 118.96899999999999
64.517600000000002 161.971 78.468699999999998
89.783199999999994 34.740200000000002 47.460900000000002
114.14700000000001 55.494199999999999 105.68000000000001
151.59399999999999 178.66399999999999 102.515
73.540999999999997 58.6524 93.656099999999995
151.59399999999999 87.978499999999997 15.8203
72.6387 63.615299999999998 6.3281200000000002
154.30099999999999 75.796899999999994 31.0078
83.015600000000006 41.507800000000003 89.226500000000001
140.31399999999999 57.75 3.7968700000000002
157.459 97.453199999999995 114.539
147.53299999999999 169.19 115.172
131.74199999999999 93.843800000000002 18.351500000000001
62.712899999999998 84.369200000000006 87.960800000000006
153.84999999999999 100.611 120.867
71.7363 64.517600000000002 10.125
178.66399999999999 124.523 103.148
98.355500000000006 27.0703 75.304599999999994
162.87299999999999 172.34800000000001 72.773300000000006
97.001999999999995 122.268 136.05500000000001
176.85900000000001 106.477 91.7577
145.72900000000001 163.32400000000001 121.5
61.810600000000001 147.98400000000001 62.648400000000002
106.477 36.093800000000002 27.210899999999999
62.712899999999998 149.33799999999999 91.124899999999997
71.285200000000003 102.867 116.437
84.820300000000003 123.17 39.867100000000001
138.059 182.72499999999999 46.195300000000003
76.248099999999994 120.914 23.414000000000001
113.69499999999999 26.6191 78.468699999999998
166.482 102.416 24.6797
61.359400000000001 141.66800000000001 25.9453
85.722700000000003 68.126999999999995 115.172
90.685599999999994 132.19300000000001 18.984400000000001
76.699200000000005 158.36099999999999 117.703
143.47300000000001 190.39500000000001 62.648400000000002
101.063 83.466800000000006 122.133
69.029300000000006 94.294899999999998 107.578
159.715 171.89699999999999 109.476
142.119 189.94300000000001 69.609300000000005
102.867 25.265599999999999 68.976500000000001
86.625 115.95099999999999 37.335900000000002
129.48599999999999 173.70099999999999 116.437
127.23099999999999 163.77500000000001 125.93000000000001
176.40799999999999 135.352 72.140500000000003
86.625 34.740200000000002 74.039000000000001
115.04900000000001 97.453199999999995 134.78899999999999
166.934 111.89100000000001 113.90600000000001
148.43600000000001 107.379 124.03100000000001
74.443399999999997 130.38900000000001 123.398
162.422 69.480500000000006 77.203000000000003
63.164099999999998 152.49600000000001 80.999899999999997
137.15600000000001 26.6191 62.015500000000003
106.477 30.2285 63.914000000000001
126.328 191.297 93.656099999999995
89.783199999999994 92.490300000000005 27.843699999999998
63.615299999999998 150.691 104.414
101.514 136.25399999999999 141.11699999999999
157.459 50.080100000000002 31.0078
87.0762 60.908200000000001 111.375
96.099599999999995 149.78899999999999 22.781199999999998
168.738 85.271500000000003 97.453000000000003
152.947 42.8613 74.671800000000005
92.941400000000002 122.71899999999999 132.88999999999999
91.587900000000005 148.887 130.99199999999999
110.086 27.0703 59.484299999999998
142.56999999999999 179.11500000000001 106.94499999999999
69.029300000000006 52.787100000000002 75.937399999999997
118.20699999999999 150.24000000000001 12.6562
152.49600000000001 178.21299999999999 103.148
173.70099999999999 87.5274 78.468699999999998
154.75200000000001 52.335999999999999 64.546800000000005
161.971 175.95699999999999 70.874899999999997
143.47300000000001 120.46299999999999 133.523
143.92400000000001 126.779 130.99199999999999
111.43899999999999 181.822 112.008
163.32400000000001 99.257800000000003 9.4921799999999994
149.78899999999999 42.8613 34.171799999999998
127.682 198.51599999999999 63.281199999999998
76.699200000000005 108.28100000000001 119.601
75.796899999999994 175.95699999999999 94.921800000000005
103.77 33.837899999999998 80.999899999999997
133.547 82.113299999999995 119.601
127.23099999999999 136.25399999999999 138.58600000000001
63.615299999999998 149.33799999999999 110.10899999999999
157.459 55.945300000000003 70.874899999999997
180.018 147.98400000000001 84.164000000000001
129.93799999999999 182.72499999999999 107.578
116.402 70.834000000000003 122.133
93.843800000000002 117.30500000000001 24.046800000000001
118.20699999999999 177.762 115.80500000000001
64.968800000000002 155.654 79.734300000000005
119.56100000000001 64.066400000000002 120.23399999999999
91.136700000000005 30.6797 64.546800000000005
174.15199999999999 152.04499999999999 74.039000000000001
176.85900000000001 104.672 89.226500000000001
156.55699999999999 49.628900000000002 77.203000000000003
171.44499999999999 93.392600000000002 82.265500000000003
132.19300000000001 76.248099999999994 23.414000000000001
87.0762 184.98099999999999 85.429599999999994
68.578100000000006 50.531300000000002 47.460900000000002
117.30500000000001 78.052800000000005 20.8828
154.75200000000001 180.91999999999999 87.328000000000003
149.33799999999999 166.03100000000001 35.4375
100.611 96.099599999999995 32.273400000000002
140.76599999999999 85.271500000000003 118.336
56.847700000000003 94.746099999999998 57.585900000000002
114.598 26.6191 54.421799999999998
138.059 148.887 128.46100000000001
98.806700000000006 179.566 115.172
147.53299999999999 53.689500000000002 93.023300000000006
85.271500000000003 175.95699999999999 106.94499999999999
173.25 102.416 62.015500000000003
149.78899999999999 99.709000000000003 18.351500000000001
97.001999999999995 189.49199999999999 54.421799999999998
163.77500000000001 70.834000000000003 54.421799999999998
92.039100000000005 189.94300000000001 71.5077
123.621 59.103499999999997 113.273
149.78899999999999 46.019500000000001 49.992100000000001
102.867 189.94300000000001 85.429599999999994
164.678 151.143 43.031199999999998
178.66399999999999 129.48599999999999 99.351399999999998
68.578100000000006 161.52000000000001 99.984300000000005
65.419899999999998 53.689500000000002 77.203000000000003
125.426 183.62700000000001 110.10899999999999
160.166 90.685599999999994 110.10899999999999
169.19 80.759799999999998 79.101500000000001
160.61699999999999 64.066400000000002 60.117100000000001
79.857399999999998 119.10899999999999 35.4375
74.894599999999997 92.941400000000002 28.476500000000001
75.345699999999994 38.800800000000002 80.999899999999997
167.83600000000001 95.648499999999999 39.234299999999998
120.914 148.887 136.05500000000001
70.382800000000003 142.119 125.93000000000001
157.91 68.126999999999995 6.9609300000000003
129.48599999999999 133.547 18.351500000000001
71.7363 62.712899999999998 89.226500000000001
69.480500000000006 166.482 78.468699999999998
72.1875 108.28100000000001 29.7422
174.60400000000001 113.244 102.515
158.36099999999999 115.5 14.5547
136.70500000000001 41.056699999999999 91.124899999999997
88.429699999999997 31.582000000000001 62.648400000000002
61.359400000000001 69.480500000000006 75.937399999999997
120.914 167.38499999999999 27.210899999999999
74.894599999999997 69.029300000000006 29.7422
167.83600000000001 79.406300000000002 86.6952
143.92400000000001 45.568399999999997 88.593599999999995
86.625 94.294899999999998 126.562
150.691 39.703099999999999 74.671800000000005
94.746099999999998 186.334 95.554599999999994
129.48599999999999 33.386699999999998 84.164000000000001
141.66800000000001 175.506 111.375
124.072 81.662099999999995 29.7422
109.184 112.79300000000001 20.8828
69.931700000000006 169.64099999999999 93.656099999999995
163.32400000000001 85.722700000000003 41.765599999999999
67.675799999999995 62.712899999999998 47.460900000000002
66.773499999999999 100.611 6.9609300000000003
101.514 25.265599999999999 67.710899999999995
90.234399999999994 130.38900000000001 18.984400000000001
101.965 152.947 20.8828
66.773499999999999 85.271500000000003 107.578
97.904300000000006 187.68799999999999 60.117100000000001
147.98400000000001 103.77 125.93000000000001
157.91 107.83 17.718699999999998
110.086 36.996099999999998 95.554599999999994
169.19 136.25399999999999 35.4375
105.123 190.846 84.164000000000001
158.81299999999999 177.762 82.898300000000006
148.43600000000001 163.77500000000001 126.562
112.79300000000001 190.846 85.429599999999994
78.503900000000002 117.756 24.6797
144.82599999999999 36.093800000000002 65.812399999999997
72.1875 60.908200000000001 5.0624900000000004
165.12899999999999 78.955100000000002 91.7577
110.988 193.553 67.078000000000003
157.00800000000001 115.04900000000001 120.867
160.61699999999999 150.691 28.476500000000001
119.56100000000001 173.70099999999999 123.398
89.783199999999994 123.621 39.234299999999998
94.746099999999998 189.49199999999999 74.039000000000001
68.578100000000006 62.712899999999998 24.046800000000001
176.40799999999999 146.18000000000001 90.492099999999994
126.779 83.015600000000006 25.3125
157.459 96.099599999999995 17.718699999999998
175.95699999999999 138.50999999999999 69.609300000000005
111.89100000000001 99.709000000000003 17.718699999999998
149.33799999999999 165.12899999999999 122.765
174.15199999999999 88.429699999999997 71.5077
166.03100000000001 164.678 97.453000000000003
124.072 57.2988 19.6172
85.722700000000003 33.837899999999998 67.710899999999995
63.164099999999998 147.53299999999999 31.640599999999999
92.039100000000005 32.033200000000001 60.749899999999997
146.18000000000001 151.143 131.625
89.332099999999997 47.373100000000001 17.085899999999999
54.140599999999999 80.759799999999998 18.984400000000001
169.64099999999999 135.352 37.968699999999998
97.001999999999995 114.14700000000001 131.625
129.035 137.15600000000001 136.68700000000001
67.675799999999995 157.459 70.242099999999994
101.063 161.06800000000001 130.99199999999999
61.810600000000001 150.691 66.4452
61.359400000000001 107.83 44.929600000000001
101.965 150.691 133.523
126.328 46.921900000000001 8.8593600000000006
68.578100000000006 100.16 113.273
99.709000000000003 81.210999999999999 20.25
146.18000000000001 54.591799999999999 40.499899999999997
164.678 156.55699999999999 49.992100000000001
166.482 158.81299999999999 64.546800000000005
132.64500000000001 121.816 12.023400000000001
72.1875 136.70500000000001 23.414000000000001
55.945300000000003 120.012 51.2577
79.857399999999998 170.994 105.047
143.02199999999999 179.11500000000001 99.984300000000005
83.015600000000006 168.738 113.273
147.08199999999999 151.143 126.562
147.53299999999999 185.43199999999999 80.367099999999994
145.72900000000001 83.466800000000006 22.148399999999999
167.38499999999999 123.17 20.8828
97.904300000000006 72.6387 42.398400000000002
140.76599999999999 35.191400000000002 77.203000000000003
117.756 194.00399999999999 89.226500000000001
159.715 86.173900000000003 106.94499999999999
118.20699999999999 82.564499999999995 35.4375
94.294899999999998 188.59 80.367099999999994
161.06800000000001 171.44499999999999 76.5702
108.28100000000001 69.029300000000006 23.414000000000001
160.61699999999999 169.64099999999999 96.8202
127.23099999999999 129.93799999999999 7.5937400000000004
128.13300000000001 49.628900000000002 46.828099999999999
127.23099999999999 60.457000000000001 113.273
147.98400000000001 187.68799999999999 62.015500000000003
94.746099999999998 126.328 134.15600000000001
59.554699999999997 104.221 19.6172
130.84 68.578100000000006 39.867100000000001
170.994 136.70500000000001 42.398400000000002
70.382800000000003 131.291 120.23399999999999
102.867 149.78899999999999 12.6562
111.89100000000001 196.71100000000001 70.242099999999994
114.598 37.898400000000002 5.0624900000000004
170.09200000000001 121.36499999999999 112.008
121.36499999999999 29.3262 75.304599999999994
72.1875 71.285200000000003 98.085800000000006
60.908200000000001 99.709000000000003 41.132800000000003
101.514 162.422 26.578099999999999
60.457000000000001 135.352 31.640599999999999
132.64500000000001 185.43199999999999 88.593599999999995
165.12899999999999 149.78899999999999 32.906199999999998
177.31100000000001 102.416 67.710899999999995
66.773499999999999 108.732 32.906199999999998
162.87299999999999 162.87299999999999 55.054600000000001
96.099599999999995 135.352 17.718699999999998
57.75 135.352 48.093699999999998
73.0899 120.914 22.781199999999998
65.419899999999998 153.398 53.789000000000001
178.21299999999999 144.82599999999999 86.062399999999997
139.863 62.261699999999998 103.148
78.955100000000002 108.732 25.3125
158.81299999999999 175.506 105.047
94.294899999999998 72.1875 115.172
112.342 191.297 90.492099999999994
92.039100000000005 42.8613 6.9609300000000003
141.66800000000001 153.84999999999999 127.828
175.95699999999999 117.756 55.054600000000001
78.955100000000002 177.31100000000001 80.999899999999997
112.79300000000001 164.678 129.726
67.224599999999995 126.328 45.562399999999997
86.173900000000003 163.77500000000001 120.867
139.41200000000001 50.982399999999998 46.828099999999999
155.203 168.738 114.539
152.04499999999999 178.21299999999999 84.796800000000005
80.759799999999998 128.584 44.929600000000001
64.968800000000002 116.402 30.375
107.379 191.297 88.593599999999995
154.30099999999999 94.294899999999998 5.6953100000000001
163.77500000000001 75.345699999999994 10.125
67.224599999999995 81.210999999999999 96.8202
150.691 71.7363 103.148
179.11500000000001 105.123 76.5702
107.379 29.7774 38.601500000000001
114.14700000000001 114.14700000000001 13.921900000000001
100.16 26.167999999999999 58.851500000000001
157.459 130.38900000000001 127.828
161.06800000000001 103.77 28.476500000000001
92.490300000000005 133.99799999999999 11.390599999999999
130.84 143.02199999999999 130.99199999999999
91.587900000000005 170.54300000000001 117.703
91.136700000000005 32.935600000000001 60.749899999999997
161.971 110.086 117.703
157.459 100.16 1.8984399999999999
106.928 191.297 70.242099999999994
94.294899999999998 31.1309 62.648400000000002
149.33799999999999 38.349600000000002 36.703099999999999
133.096 39.703099999999999 91.7577
104.221 36.996099999999998 88.593599999999995
171.44499999999999 101.514 55.687399999999997
127.23099999999999 149.78899999999999 133.523
104.221 153.398 24.046800000000001
72.6387 56.847700000000003 87.328000000000003
120.914 183.17599999999999 43.664000000000001
152.49600000000001 62.712899999999998 42.398400000000002
162.422 161.52000000000001 108.211
129.035 176.85900000000001 116.437
179.566 137.15600000000001 93.656099999999995
140.31399999999999 119.10899999999999 30.375
69.029300000000006 165.58000000000001 77.835800000000006
153.398 159.715 124.03100000000001
96.099599999999995 41.507800000000003 92.390500000000003
119.56100000000001 35.642600000000002 87.328000000000003
162.422 64.968800000000002 55.687399999999997
110.988 31.1309 62.648400000000002
88.429699999999997 102.416 127.19499999999999
61.359400000000001 115.5 43.664000000000001
124.97499999999999 180.46899999999999 106.94499999999999
95.197299999999998 189.041 82.898300000000006
88.429699999999997 61.359400000000001 22.781199999999998
166.03100000000001 129.93799999999999 17.085899999999999
153.398 119.56100000000001 31.640599999999999
160.166 54.591799999999999 57.585900000000002
75.345699999999994 124.523 30.375
146.18000000000001 175.05500000000001 113.273
66.322299999999998 126.328 22.148399999999999
120.914 41.959000000000003 12.6562
175.05500000000001 111.43899999999999 65.812399999999997
141.21700000000001 145.27699999999999 130.99199999999999
150.24000000000001 181.822 79.101500000000001
177.31100000000001 142.56999999999999 65.812399999999997
79.406300000000002 34.740200000000002 72.140500000000003
98.806700000000006 119.56100000000001 1.26562
63.164099999999998 55.945300000000003 55.054600000000001
90.685599999999994 81.210999999999999 24.046800000000001
149.78899999999999 178.21299999999999 99.984300000000005
60.457000000000001 112.79300000000001 38.601500000000001
170.994 146.18000000000001 104.414
102.867 115.95099999999999 22.781199999999998
103.77 54.140599999999999 105.047
149.78899999999999 182.72499999999999 78.468699999999998
103.318 38.800800000000002 31.640599999999999
168.28700000000001 147.53299999999999 117.06999999999999
126.779 168.738 28.476500000000001
137.15600000000001 128.13300000000001 17.718699999999998
61.359400000000001 87.0762 91.7577
69.480500000000006 64.517600000000002 94.921800000000005
139.41200000000001 51.884799999999998 100.617
88.880899999999997 183.17599999999999 99.984300000000005
133.547 28.4238 70.874899999999997
68.578100000000006 78.955100000000002 105.68000000000001
114.598 99.257800000000003 18.351500000000001
175.05500000000001 146.18000000000001 96.8202
97.453199999999995 176.85900000000001 115.80500000000001
133.096 119.10899999999999 138.58600000000001
140.76599999999999 113.244 129.726
147.98400000000001 47.824199999999998 47.460900000000002
109.184 32.935600000000001 76.5702
156.55699999999999 77.150400000000005 34.804600000000001
101.965 76.699200000000005 118.336
168.28700000000001 127.23099999999999 34.804600000000001
132.64500000000001 32.484400000000001 84.164000000000001
126.779 138.50999999999999 7.5937400000000004
149.78899999999999 114.598 20.25
79.857399999999998 115.04900000000001 25.3125
77.601600000000005 124.523 29.7422
118.20699999999999 36.996099999999998 36.703099999999999
119.10899999999999 189.041 94.921800000000005
144.82599999999999 182.72499999999999 89.226500000000001
155.654 160.166 114.539
173.25 87.0762 63.281199999999998
175.05500000000001 101.514 98.718599999999995
69.931700000000006 73.540999999999997 96.187399999999997
109.63500000000001 193.553 82.898300000000006
92.039100000000005 127.23099999999999 22.781199999999998
120.914 76.699200000000005 127.19499999999999
94.294899999999998 27.5215 74.039000000000001
62.712899999999998 151.143 82.265500000000003
112.342 109.184 133.523
56.847700000000003 91.587900000000005 60.749899999999997
145.27699999999999 31.582000000000001 65.812399999999997
109.63500000000001 36.544899999999998 24.046800000000001
64.066400000000002 72.1875 71.5077
83.918000000000006 47.824199999999998 99.351399999999998
114.14700000000001 70.834000000000003 39.234299999999998
99.257800000000003 30.6797 70.242099999999994
113.244 192.19900000000001 87.960800000000006
63.615299999999998 56.396500000000003 60.749899999999997
93.392600000000002 121.816 17.718699999999998
147.98400000000001 53.238300000000002 87.960800000000006
117.756 197.16200000000001 60.749899999999997
114.598 41.056699999999999 22.148399999999999
124.072 73.992199999999997 5.6953100000000001
119.56100000000001 150.24000000000001 137.31999999999999
57.2988 124.97499999999999 71.5077
143.92400000000001 51.884799999999998 4.4296800000000003
59.103499999999997 126.779 108.84399999999999
67.675799999999995 106.477 26.578099999999999
70.834000000000003 55.042999999999999 92.390500000000003
126.779 147.08199999999999 139.21899999999999
95.197299999999998 87.5274 43.031199999999998
96.550799999999995 185.88300000000001 87.960800000000006
130.38900000000001 128.584 12.023400000000001
135.352 175.506 117.703
158.81299999999999 88.880899999999997 25.3125
130.38900000000001 138.059 135.422
87.0762 77.601600000000005 115.172
97.001999999999995 116.402 132.25800000000001
147.98400000000001 134.44900000000001 129.726
170.54300000000001 157.91 71.5077
102.867 113.244 133.523
173.25 140.76599999999999 56.953099999999999
143.02199999999999 68.126999999999995 105.047
83.918000000000006 52.787100000000002 99.351399999999998
144.82599999999999 62.712899999999998 99.351399999999998
162.422 78.503900000000002 94.921800000000005
111.43899999999999 168.738 29.109300000000001
173.25 94.294899999999998 68.976500000000001
131.291 181.37100000000001 99.351399999999998
129.035 155.654 20.8828
158.81299999999999 92.490300000000005 114.539
72.6387 121.816 31.0078
71.7363 66.322299999999998 91.124899999999997
110.53700000000001 26.6191 48.093699999999998
64.968800000000002 110.988 106.94499999999999
110.086 26.167999999999999 65.812399999999997
148.43600000000001 72.1875 109.476
60.457000000000001 152.04499999999999 65.179599999999994
109.184 127.682 137.31999999999999
140.76599999999999 110.988 26.578099999999999
133.547 46.019500000000001 6.9609300000000003
65.419899999999998 153.84999999999999 43.031199999999998
166.934 68.578100000000006 74.039000000000001
79.857399999999998 173.70099999999999 48.726500000000001
61.810600000000001 72.1875 64.546800000000005
84.820300000000003 173.25 41.132800000000003
89.783199999999994 80.759799999999998 8.8593600000000006
80.759799999999998 108.732 125.297
97.904300000000006 27.5215 51.890599999999999
65.871099999999998 159.715 70.874899999999997
133.547 177.762 106.94499999999999
108.28100000000001 44.2149 93.656099999999995
99.709000000000003 113.69499999999999 31.0078
171.44499999999999 157.459 104.414
148.43600000000001 41.056699999999999 53.789000000000001
145.72900000000001 187.23599999999999 89.859300000000005
65.419899999999998 83.918000000000006 49.359299999999998
82.113299999999995 81.210999999999999 114.539
116.402 192.19900000000001 94.288899999999998
176.85900000000001 109.184 61.3827
121.36499999999999 27.0703 67.710899999999995
132.64500000000001 27.0703 72.773300000000006
162.422 148.43600000000001 117.703
146.18000000000001 53.689500000000002 99.351399999999998
69.480500000000006 164.227 109.476
66.773499999999999 158.36099999999999 92.390500000000003
73.0899 164.227 112.008
146.631 133.547 128.46100000000001
104.672 190.39500000000001 99.351399999999998
112.342 34.740200000000002 89.226500000000001
137.607 58.6524 104.414
118.20699999999999 36.093800000000002 82.265500000000003
178.66399999999999 125.877 94.921800000000005
90.234399999999994 43.7637 17.718699999999998
94.746099999999998 118.658 29.109300000000001
113.244 36.093800000000002 14.5547
115.5 165.58000000000001 30.375
91.587900000000005 61.810600000000001 108.84399999999999
132.64500000000001 31.582000000000001 75.937399999999997
136.25399999999999 53.238300000000002 99.984300000000005
57.2988 104.221 53.789000000000001
64.968800000000002 63.164099999999998 86.062399999999997
150.24000000000001 57.75 96.187399999999997
143.47300000000001 77.601600000000005 18.984400000000001
79.857399999999998 34.289099999999998 53.156199999999998
139.863 101.063 127.19499999999999
145.27699999999999 190.39500000000001 66.4452
124.072 185.43199999999999 99.351399999999998
72.1875 52.335999999999999 56.3202
154.30099999999999 49.177700000000002 75.937399999999997
98.806700000000006 31.582000000000001 41.765599999999999
65.871099999999998 58.6524 20.8828
69.029300000000006 96.099599999999995 110.10899999999999
134.44900000000001 181.37100000000001 98.085800000000006
163.77500000000001 89.332099999999997 16.453099999999999
109.63500000000001 26.167999999999999 77.203000000000003
108.732 187.23599999999999 106.94499999999999
172.34800000000001 143.92400000000001 46.195300000000003
114.14700000000001 181.822 43.664000000000001
65.419899999999998 110.086 110.742
98.806700000000006 61.810600000000001 114.539
83.015600000000006 119.10899999999999 28.476500000000001
65.419899999999998 102.416 105.68000000000001
147.08199999999999 112.79300000000001 25.3125
142.56999999999999 105.123 27.210899999999999
61.359400000000001 117.30500000000001 108.211
88.429699999999997 50.531300000000002 102.515
140.31399999999999 184.078 50.624899999999997
90.234399999999994 133.99799999999999 22.148399999999999
64.517600000000002 80.759799999999998 93.656099999999995
104.221 149.78899999999999 14.5547
136.70500000000001 58.6524 9.4921799999999994
69.029300000000006 161.06800000000001 83.531099999999995
98.806700000000006 35.191400000000002 80.367099999999994
70.834000000000003 161.971 62.648400000000002
139.41200000000001 56.396500000000003 101.883
88.880899999999997 179.566 54.421799999999998
93.843800000000002 76.248099999999994 43.031199999999998
144.375 35.642600000000002 74.671800000000005
172.34800000000001 159.26400000000001 85.429599999999994
58.2012 113.244 49.992100000000001
151.59399999999999 46.921900000000001 80.999899999999997
119.56100000000001 170.54300000000001 30.375
154.75200000000001 56.847700000000003 76.5702
83.918000000000006 53.238300000000002 51.2577
156.55699999999999 173.25 106.312
166.934 102.867 105.68000000000001
87.0762 103.77 129.09399999999999
149.78899999999999 118.20699999999999 129.726
88.880899999999997 42.410200000000003 91.124899999999997
130.84 189.041 77.835800000000006
113.244 115.95099999999999 3.1640600000000001
153.398 86.625 22.148399999999999
129.48599999999999 40.605499999999999 94.288899999999998
58.2012 128.584 51.2577
120.914 70.382800000000003 24.6797
160.166 122.268 118.96899999999999
61.359400000000001 102.867 101.883
129.48599999999999 169.19 127.828
85.271500000000003 35.191400000000002 84.796800000000005
85.722700000000003 92.941400000000002 19.6172
162.87299999999999 98.355500000000006 10.125
62.261699999999998 89.783199999999994 51.2577
59.554699999999997 116.402 108.84399999999999
136.70500000000001 64.066400000000002 108.84399999999999
143.47300000000001 49.177700000000002 94.921800000000005
160.61699999999999 60.005899999999997 56.3202
173.25 101.063 86.6952
153.84999999999999 117.30500000000001 23.414000000000001
167.38499999999999 165.58000000000001 73.406199999999998
126.328 182.72499999999999 106.312
98.355500000000006 43.3125 23.414000000000001
102.867 166.03100000000001 126.562
83.015600000000006 56.396500000000003 51.2577
131.74199999999999 182.273 101.883
85.271500000000003 180.91999999999999 95.554599999999994
58.2012 109.63500000000001 101.883
152.947 65.419899999999998 100.617
157.91 47.373100000000001 51.2577
144.375 173.70099999999999 36.070300000000003
97.904300000000006 132.19300000000001 136.05500000000001
152.04499999999999 163.77500000000001 31.0078
57.2988 127.23099999999999 91.124899999999997
157.459 94.294899999999998 25.3125
156.55699999999999 83.918000000000006 110.742
134.90000000000001 72.1875 36.070300000000003
70.382800000000003 165.58000000000001 71.5077
125.426 84.820300000000003 36.703099999999999
112.342 128.13300000000001 4.4296800000000003
56.396500000000003 118.658 49.359299999999998
161.06800000000001 159.26400000000001 120.867
92.490300000000005 140.76599999999999 22.781199999999998
87.978499999999997 61.359400000000001 22.781199999999998
127.682 182.72499999999999 97.453000000000003
174.15199999999999 160.166 91.124899999999997
64.968800000000002 157.00800000000001 63.914000000000001
131.74199999999999 46.470700000000001 95.554599999999994
123.17 82.564499999999995 30.375
133.547 106.477 129.726
170.54300000000001 119.56100000000001 110.10899999999999
107.379 189.94300000000001 48.726500000000001
66.322299999999998 158.81299999999999 97.453000000000003
62.261699999999998 63.164099999999998 74.671800000000005
137.607 46.921900000000001 94.921800000000005
181.822 119.56100000000001 98.718599999999995
115.5 53.238300000000002 109.476
123.17 53.238300000000002 43.664000000000001
100.16 83.918000000000006 20.25
170.994 127.682 115.172
69.931700000000006 122.71899999999999 31.0078
135.352 29.7774 72.773300000000006
93.843800000000002 111.89100000000001 128.46100000000001
75.345699999999994 50.531300000000002 89.226500000000001
166.482 87.0762 49.992100000000001
175.506 129.035 105.68000000000001
174.60400000000001 120.012 103.148
172.34800000000001 103.77 60.117100000000001
72.6387 166.482 106.94499999999999
110.988 31.582000000000001 55.054600000000001
129.035 179.566 46.195300000000003
69.029300000000006 135.352 22.148399999999999
156.10599999999999 101.063 13.921900000000001
114.14700000000001 89.332099999999997 129.726
116.854 188.13900000000001 87.960800000000006
118.20699999999999 75.796899999999994 124.664
157.91 181.822 81.6327
148.43600000000001 51.433599999999998 22.781199999999998
161.06800000000001 168.738 101.883
141.21700000000001 190.846 60.117100000000001
66.322299999999998 152.04499999999999 37.968699999999998
160.61699999999999 163.32400000000001 108.84399999999999
159.26400000000001 175.95699999999999 103.148
138.059 70.382800000000003 36.703099999999999
135.803 182.72499999999999 101.25
88.429699999999997 180.91999999999999 100.617
159.26400000000001 155.654 116.437
68.578100000000006 66.773499999999999 94.288899999999998
124.97499999999999 176.85900000000001 112.008
102.867 94.746099999999998 20.25
155.203 77.150400000000005 32.906199999999998
107.379 53.689500000000002 112.64
75.796899999999994 69.480500000000006 28.476500000000001
65.871099999999998 133.096 13.921900000000001
112.79300000000001 35.642600000000002 29.109300000000001
143.92400000000001 37.898400000000002 80.367099999999994
93.392600000000002 178.66399999999999 112.008
58.6524 71.285200000000003 9.4921799999999994
118.20699999999999 38.800800000000002 33.539000000000001
128.13300000000001 123.17 132.25800000000001
57.75 146.18000000000001 98.718599999999995
128.584 183.62700000000001 42.398400000000002
78.503900000000002 97.453199999999995 118.336
70.834000000000003 165.58000000000001 70.874899999999997
64.066400000000002 59.554699999999997 63.914000000000001
120.46299999999999 180.46899999999999 39.234299999999998
60.005899999999997 144.82599999999999 36.703099999999999
151.59399999999999 185.43199999999999 84.796800000000005
114.598 32.033200000000001 48.726500000000001
175.05500000000001 136.25399999999999 58.218699999999998
126.779 115.5 136.68700000000001
142.56999999999999 189.94300000000001 76.5702
65.871099999999998 129.035 45.562399999999997
161.971 64.968800000000002 80.999899999999997
74.443399999999997 41.507800000000003 74.671800000000005
148.43600000000001 123.17 33.539000000000001
96.099599999999995 45.117199999999997 33.539000000000001
95.648499999999999 96.550799999999995 127.19499999999999
121.816 29.3262 79.101500000000001
72.6387 92.039100000000005 26.578099999999999
97.904300000000006 125.877 1.26562
160.61699999999999 96.099599999999995 24.046800000000001
158.36099999999999 178.66399999999999 83.531099999999995
79.406300000000002 177.762 89.859300000000005
157.459 50.531300000000002 61.3827
68.578100000000006 164.678 105.047
123.17 140.76599999999999 134.78899999999999
63.164099999999998 155.203 94.288899999999998
147.08199999999999 181.822 93.023300000000006
95.648499999999999 115.5 29.7422
171.89699999999999 160.61699999999999 68.343699999999998
91.587900000000005 119.10899999999999 133.523
86.173900000000003 171.89699999999999 38.601500000000001
118.20699999999999 88.429699999999997 125.297
122.71899999999999 48.275399999999998 97.453000000000003
123.17 180.91999999999999 105.68000000000001
127.23099999999999 180.46899999999999 107.578
73.992199999999997 159.715 35.4375
115.5 175.05500000000001 117.703
69.480500000000006 95.648499999999999 29.109300000000001
134.44900000000001 162.422 129.09399999999999
88.880899999999997 31.582000000000001 71.5077
99.257800000000003 183.17599999999999 113.273
143.02199999999999 175.506 37.335900000000002
62.712899999999998 66.773499999999999 11.390599999999999
175.506 94.294899999999998 81.6327
170.09200000000001 127.23099999999999 37.335900000000002
108.732 102.867 132.25800000000001
139.41200000000001 183.62700000000001 101.883
114.14700000000001 142.56999999999999 140.48400000000001
141.21700000000001 75.796899999999994 117.703
86.173900000000003 180.91999999999999 96.187399999999997
127.682 122.268 15.8203
131.74199999999999 31.582000000000001 76.5702
149.33799999999999 121.816 31.640599999999999
122.268 73.540999999999997 3.1640600000000001
156.55699999999999 55.494199999999999 61.3827
55.042999999999999 133.99799999999999 59.484299999999998
152.04499999999999 46.019500000000001 56.953099999999999
81.210999999999999 177.762 81.6327
137.607 113.244 133.523
112.79300000000001 47.824199999999998 101.25
112.79300000000001 158.36099999999999 22.148399999999999
75.345699999999994 129.48599999999999 36.070300000000003
160.61699999999999 68.126999999999995 87.960800000000006
64.968800000000002 63.615299999999998 82.265500000000003
71.285200000000003 52.787100000000002 84.164000000000001
109.63500000000001 128.584 9.4921799999999994
170.994 125.877 37.335900000000002
90.685599999999994 33.837899999999998 79.101500000000001
117.30500000000001 23.912099999999999 65.812399999999997
63.615299999999998 160.61699999999999 81.6327
99.257800000000003 133.096 4.4296800000000003
135.352 140.31399999999999 132.88999999999999
111.89100000000001 37.447299999999998 22.148399999999999
95.197299999999998 148.43600000000001 137.31999999999999
130.38900000000001 183.17599999999999 105.047
106.477 27.9727 43.664000000000001
119.56100000000001 150.691 134.15600000000001
74.894599999999997 148.43600000000001 29.109300000000001
161.52000000000001 112.79300000000001 114.539
144.82599999999999 180.46899999999999 49.359299999999998
130.84 197.16200000000001 71.5077
133.096 36.093800000000002 46.195300000000003
151.59399999999999 69.029300000000006 37.968699999999998
158.36099999999999 56.396500000000003 52.523400000000002
91.136700000000005 81.210999999999999 19.6172
153.84999999999999 176.85900000000001 108.211
104.221 180.91999999999999 45.562399999999997
88.880899999999997 187.68799999999999 72.140500000000003
159.26400000000001 133.096 127.19499999999999
129.035 79.406300000000002 0.63281200000000004
155.654 182.72499999999999 91.124899999999997
120.012 37.447299999999998 93.023300000000006
120.914 146.631 6.9609300000000003
69.029300000000006 123.17 29.109300000000001
114.14700000000001 115.5 4.4296800000000003
134.44900000000001 91.587900000000005 123.398
154.75200000000001 53.238300000000002 76.5702
104.672 37.898400000000002 29.7422
97.453199999999995 70.834000000000003 43.031199999999998
120.46299999999999 120.012 137.953
175.05500000000001 120.914 102.515
133.99799999999999 36.544899999999998 42.398400000000002
150.691 48.275399999999998 30.375
68.126999999999995 48.726599999999998 60.749899999999997
151.59399999999999 129.48599999999999 11.390599999999999
143.47300000000001 50.080100000000002 6.9609300000000003
57.75 116.402 93.656099999999995
147.98400000000001 55.945300000000003 24.6797
98.806700000000006 188.59 94.288899999999998
124.072 115.95099999999999 137.31999999999999
75.345699999999994 70.382800000000003 4.4296800000000003
83.466800000000006 184.078 79.734300000000005
161.06800000000001 69.480500000000006 13.921900000000001
62.712899999999998 135.803 115.80500000000001
146.631 47.373100000000001 41.132800000000003
172.79900000000001 134.90000000000001 106.94499999999999
99.257800000000003 191.74799999999999 58.218699999999998
70.382800000000003 62.261699999999998 17.085899999999999
74.894599999999997 168.28700000000001 98.718599999999995
61.810600000000001 56.396500000000003 62.648400000000002
77.601600000000005 82.564499999999995 112.008
147.53299999999999 175.506 40.499899999999997
134.44900000000001 37.447299999999998 42.398400000000002
148.887 43.7637 48.726500000000001
64.066400000000002 82.564499999999995 66.4452
152.49600000000001 71.285200000000003 34.171799999999998
108.28100000000001 103.318 18.351500000000001
107.379 89.332099999999997 32.273400000000002
112.79300000000001 30.2285 71.5077
129.48599999999999 182.273 98.085800000000006
64.066400000000002 155.654 110.10899999999999
174.15199999999999 110.086 100.617
107.83 190.39500000000001 99.984300000000005
166.934 163.77500000000001 84.796800000000005
68.578100000000006 115.5 117.703
113.69499999999999 169.19 32.906199999999998
141.21700000000001 37.898400000000002 41.132800000000003
131.291 37.447299999999998 89.226500000000001
63.615299999999998 63.615299999999998 17.085899999999999
135.803 191.74799999999999 73.406199999999998
69.480500000000006 69.029300000000006 51.890599999999999
83.015600000000006 143.47300000000001 128.46100000000001
121.816 49.177700000000002 105.68000000000001
64.517600000000002 161.971 80.999899999999997
128.584 78.052800000000005 1.26562
82.564499999999995 82.564499999999995 120.23399999999999
175.95699999999999 129.93799999999999 62.648400000000002
60.457000000000001 153.84999999999999 103.148
159.715 162.422 51.890599999999999
129.035 113.244 135.422
126.779 187.23599999999999 99.984300000000005
149.33799999999999 83.918000000000006 3.1640600000000001
174.60400000000001 151.143 72.773300000000006
114.598 38.349600000000002 24.046800000000001
153.84999999999999 125.426 12.023400000000001
102.867 113.244 27.210899999999999
79.406300000000002 112.79300000000001 123.398
127.23099999999999 191.297 79.734300000000005
158.36099999999999 94.746099999999998 5.6953100000000001
107.379 192.19900000000001 80.367099999999994
100.611 101.965 131.625
166.03100000000001 76.699200000000005 56.3202
83.015600000000006 105.123 123.398
174.15199999999999 93.843800000000002 93.023300000000006
181.37100000000001 129.93799999999999 91.7577
61.810600000000001 73.540999999999997 65.179599999999994
72.1875 58.6524 91.124899999999997
95.197299999999998 175.05500000000001 37.335900000000002
159.26400000000001 110.53700000000001 25.9453
79.406300000000002 38.349600000000002 57.585900000000002
106.928 67.675799999999995 122.133
68.126999999999995 163.32400000000001 106.94499999999999
116.402 179.566 113.90600000000001
177.31100000000001 119.56100000000001 70.242099999999994
144.82599999999999 183.17599999999999 57.585900000000002
147.53299999999999 53.238300000000002 19.6172
120.46299999999999 63.164099999999998 112.008
158.81299999999999 117.30500000000001 35.4375
151.143 118.658 34.171799999999998
165.12899999999999 65.419899999999998 69.609300000000005
69.931700000000006 165.58000000000001 94.288899999999998
121.36499999999999 70.834000000000003 1.8984399999999999
69.480500000000006 153.84999999999999 35.4375
149.33799999999999 173.70099999999999 112.64
76.699200000000005 130.84 41.765599999999999
159.26400000000001 106.02500000000001 115.80500000000001
91.587900000000005 187.23599999999999 78.468699999999998
170.09200000000001 102.416 99.984300000000005
175.95699999999999 121.36499999999999 109.476
126.779 177.762 117.06999999999999
100.611 32.033200000000001 76.5702
131.74199999999999 74.443399999999997 115.80500000000001
60.005899999999997 147.53299999999999 48.093699999999998
122.268 27.9727 67.078000000000003
87.5274 81.662099999999995 8.2265499999999996
81.662099999999995 167.83600000000001 113.273
73.540999999999997 48.726599999999998 87.328000000000003
179.566 119.10899999999999 94.288899999999998
157.00800000000001 168.28700000000001 55.687399999999997
166.03100000000001 158.36099999999999 62.648400000000002
134.90000000000001 180.91999999999999 103.78100000000001
176.85900000000001 136.70500000000001 58.218699999999998
85.271500000000003 169.19 40.499899999999997
124.523 72.1875 24.046800000000001
158.81299999999999 162.87299999999999 49.359299999999998
139.863 57.75 5.0624900000000004
74.443399999999997 41.507800000000003 52.523400000000002
167.83600000000001 170.09200000000001 84.164000000000001
88.880899999999997 45.568399999999997 8.8593600000000006
84.820300000000003 35.191400000000002 51.2577
151.143 55.042999999999999 41.132800000000003
156.55699999999999 60.908200000000001 4.4296800000000003
117.30500000000001 81.662099999999995 124.03100000000001
126.328 24.814499999999999 56.953099999999999
140.76599999999999 151.59399999999999 133.523
69.931700000000006 129.48599999999999 119.601
172.79900000000001 158.36099999999999 87.960800000000006
172.34800000000001 106.477 54.421799999999998
133.096 157.459 131.625
92.490300000000005 80.759799999999998 122.133
148.43600000000001 124.072 33.539000000000001
158.81299999999999 119.56100000000001 14.5547
168.28700000000001 132.64500000000001 32.906199999999998
101.514 41.959000000000003 94.921800000000005
55.042999999999999 129.035 48.726500000000001
68.578100000000006 163.32400000000001 93.023300000000006
125.426 102.416 130.99199999999999
164.227 89.783199999999994 37.335900000000002
145.27699999999999 56.396500000000003 41.765599999999999
134.44900000000001 189.041 74.039000000000001
169.64099999999999 76.248099999999994 75.937399999999997
67.675799999999995 161.06800000000001 103.78100000000001
152.49600000000001 40.154299999999999 62.648400000000002
121.36499999999999 172.34800000000001 119.601
101.063 193.102 86.6952
90.234399999999994 33.386699999999998 81.6327
137.607 191.74799999999999 86.062399999999997
82.113299999999995 128.13300000000001 132.25800000000001
127.682 159.26400000000001 129.726
63.164099999999998 147.98400000000001 37.968699999999998
106.928 64.066400000000002 113.90600000000001
79.406300000000002 174.15199999999999 101.25
129.035 130.84 132.25800000000001
78.955100000000002 166.934 117.703
93.392600000000002 70.382800000000003 113.90600000000001
175.05500000000001 121.36499999999999 48.726500000000001
124.072 104.221 32.273400000000002
63.615299999999998 98.355500000000006 29.7422
69.029300000000006 161.971 104.414
115.04900000000001 151.59399999999999 10.125
147.08199999999999 186.334 73.406199999999998
154.30099999999999 86.173900000000003 20.8828
83.015600000000006 61.810600000000001 49.992100000000001
114.598 24.363299999999999 58.218699999999998
116.854 81.662099999999995 129.726
121.816 53.238300000000002 41.132800000000003
96.099599999999995 35.191400000000002 82.898300000000006
96.550799999999995 33.837899999999998 14.5547
89.332099999999997 32.484400000000001 82.898300000000006
106.928 124.97499999999999 3.7968700000000002
127.682 48.726599999999998 106.312
160.61699999999999 94.746099999999998 20.8828
109.184 168.738 129.726
124.523 188.13900000000001 85.429599999999994
97.453199999999995 124.523 25.3125
79.406300000000002 174.60400000000001 51.2577
153.84999999999999 119.10899999999999 124.664
132.19300000000001 73.0899 38.601500000000001
115.5 107.379 25.3125
71.285200000000003 78.052800000000005 36.703099999999999
131.74199999999999 47.824199999999998 46.195300000000003
100.611 113.69499999999999 134.78899999999999
65.419899999999998 80.308599999999998 52.523400000000002
161.971 154.75200000000001 43.664000000000001
161.06800000000001 168.738 53.156199999999998
72.6387 102.867 25.3125
160.166 165.58000000000001 113.273
171.89699999999999 157.91 75.304599999999994
116.402 185.43199999999999 106.312
156.10599999999999 53.689500000000002 73.406199999999998
71.285200000000003 168.28700000000001 79.734300000000005
139.863 185.43199999999999 92.390500000000003
99.709000000000003 144.82599999999999 134.15600000000001
143.02199999999999 85.722700000000003 117.703
87.978499999999997 53.689500000000002 99.351399999999998
148.887 38.349600000000002 68.976500000000001
174.15199999999999 126.328 41.132800000000003
76.248099999999994 124.97499999999999 24.046800000000001
157.459 59.554699999999997 10.7578
64.517600000000002 73.540999999999997 88.593599999999995
163.77500000000001 156.55699999999999 48.093699999999998
110.53700000000001 146.631 13.289
178.21299999999999 106.477 87.960800000000006
165.12899999999999 69.480500000000006 80.367099999999994
75.796899999999994 47.373100000000001 91.7577
160.61699999999999 64.517600000000002 15.1875
76.699200000000005 69.480500000000006 106.94499999999999
158.81299999999999 177.31100000000001 89.859300000000005
147.08199999999999 56.396500000000003 0.63281200000000004
123.621 140.76599999999999 134.78899999999999
150.691 65.419899999999998 44.296799999999998
131.74199999999999 129.035 17.718699999999998
133.99799999999999 40.605499999999999 85.429599999999994
113.244 60.908200000000001 118.336
92.941400000000002 129.035 0
107.379 136.70500000000001 140.48400000000001
68.578100000000006 161.52000000000001 63.914000000000001
163.77500000000001 171.89699999999999 80.367099999999994
147.08199999999999 87.5274 118.96899999999999
114.14700000000001 30.2285 75.937399999999997
80.308599999999998 116.854 24.6797
135.803 177.762 44.929600000000001
143.02199999999999 69.029300000000006 108.211
181.822 131.74199999999999 93.656099999999995
159.715 55.494199999999999 62.648400000000002
108.28100000000001 64.968800000000002 112.64
146.631 186.334 78.468699999999998
154.75200000000001 180.91999999999999 85.429599999999994
63.164099999999998 59.554699999999997 54.421799999999998
80.308599999999998 97.904300000000006 119.601
148.43600000000001 120.012 35.4375
150.691 181.822 78.468699999999998
91.587900000000005 79.406300000000002 0
66.322299999999998 154.75200000000001 68.976500000000001
156.55699999999999 106.928 22.148399999999999
