0.053546453795225768 0.071925961127401045 -0.023864830774131748
-0.058532904242857536 0.15688930403864407 -0.024742459776347408
-0.098697920816795612 0.15343214249105849 0.011873791299596386
-0.04525902757739949 0.18109582972524566 -0.036599875463887106
-0.043440628422067695 0.056402424757748537 -0.011685194385609436
-0.0016139912129492222 0.14396585540433129 -0.011520795461212938
-0.042283830454782144 0.054884547552740574 -0.038791945285818509
-0.036769031658844473 0.092935737176013833 -0.015924981579228458
-0.016788218720238206 0.12491460013039322 -0.020846874957978063
-0.018339057306579507 0.088627316428752684 0.0079884260475750254
-0.026531993160957362 0.13162924650139821 -0.016651428156415994
-0.026907442079032135 0.14574204915816519 -0.0046167016587128811
0.062962978689003107 0.054426259028513002 0.015411468443934723
-0.08277194262843264 0.16456514190816635 0.011897193368882659
-0.087831175445595489 0.14239460140250218 0.021466018901415047
0.053741034822013457 0.11484166221008907 -0.0039130909051275243
0.056288856052745841 0.05515573956823272 -0.022423588848702842
0.077790617069604009 0.11218111632600936 0.0002987035073505093
-0.048509790835053503 0.076775576949868404 0.030873555632970853
0.003142735846912078 0.098042529813644877 -0.0039120228466472153
-0.03676775401939697 0.16396761231635834 -0.03915903063611284
-0.055827917335335993 0.10195824915763503 -0.021481896915923612
0.045619053028538629 0.098414917985430034 0.015068351797184909
-0.084879115501601335 0.15158588988853436 -0.006098173382961352
-0.090170674694344949 0.17158215784554753 0.0058964667915523006
0.05415028723910887 0.13967498950214063 -0.028847389320694038
0.036142393881901144 0.11138137077238525 -0.032046003610558794
0.07113969411394469 0.071847648551655763 -0.0015024766993154419
0.012495894899323878 0.11102881577692345 -0.018419843731914302
-0.047032832404047813 0.15950536792171269 -0.033572931601007917
-0.06469466032868447 0.055754542148040195 0.030955057278613463
-0.089691714033060296 0.14939326862464702 -0.0021012770153384765
-0.099769113792368219 0.15631526550977221 0.0065717355670411445
-0.033048099721504944 0.055529859335033897 -0.026253138516155121
-0.076518164468352939 0.096303470218073228 0.011463647211688729
-0.014025239026258034 0.085801916835037309 0.0098064766212079008
-0.086752610745741116 0.082629707118235612 -0.0086205373586863993
-0.0722792035990905 0.089009619655537581 -0.028829592004400117
0.03859002215065381 0.070576465947985556 -0.038289267154473124
0.0049985871303167041 0.057364777861529312 0.023186327776069413
-0.012282602218950927 0.13298297329267306 -0.022263355565623606
-0.063597081325082322 0.16996704174244492 -0.025212959052500171
0.074094165579863688 0.083236405605054353 0.021968430785612596
-0.0099439437677188332 0.067549017311349185 0.017798911186670738
0.015259871673754187 0.063602948632641598 -0.019547972552211603
-0.039530827636505679 0.1163541180607521 -0.021345590590720907
0.073431394742116629 0.11947743991612454 -0.017828550126395629
-0.045362381898693502 0.14669805167288996 -0.03171771312865327
0.038631750960265082 0.069360188151647961 0.015328171046060815
-0.014952547944440573 0.055460956476043342 0.010386813476854277
-0.077093227611788107 0.067657392078388057 -0.031642526475556369
-0.027645140223497615 0.1033569718296595 -0.010996320743549358
-0.075154028479370097 0.08627659592419093 0.014035920942139984
0.034587054065596944 0.085512313982933713 0.027217113923264983
-0.068782168401362087 0.1436382898998001 0.01262010225239904
0.018865541346604415 0.12283844149840638 -0.013624972681598024
-0.051980164460874043 0.090045173065517792 -0.02185766587028317
0.035574306511813834 0.1507344901308027 -0.031985108367369633
-0.074749640533692749 0.17310396042248785 -0.0068880698773792692
-0.021831560453091477 0.16093752107939857 -0.023657397193521029
-0.083821006332459036 0.065782082979767745 -0.024091848017781865
0.075587475223953329 0.12092248247336895 -0.0078387483731627555
-0.058943664038628232 0.092611518813999913 -0.024742422230070851
-0.063888845785146725 0.1776521503297932 -0.017443644344075623
-0.002722443181641266 0.075777501364514152 -0.0056450839617857565
0.072231558240807958 0.14721808119103591 -0.010789482024276159
0.061184420513243805 0.055786277415456061 -0.02273101682188149
-0.021047781936147879 0.18687039263221003 -0.027509944969944085
0.035097677355449067 0.096998260983104975 0.021747707006679492
0.028441385886211264 0.12350044930083375 -0.016417852735384764
0.022356938727225124 0.095517772486024194 -0.029900404077907193
-0.047681928884520566 0.17736711998246069 -0.027946989759462526
0.060467048897174115 0.13815006411842018 -0.022639923752359993
-0.098886022925916667 0.17467905475012951 -0.004422428401637749
-0.017273459570095791 0.058623980756041562 0.0079086809412198065
-0.038521788508124655 0.17337345988445835 -0.029831483674538695
-0.040058330006398038 0.16144550682928621 0.0012678530480461528
0.064549036063847903 0.090502988622501987 0.0013895668160097622
0.043232488697691987 0.064181194662525226 -0.038667467895697992
0.058526713922010427 0.1008254534410261 -0.01167732183797723
0.035910230579953593 0.1517636703928518 -0.0073620348897989341
0.064274093568532212 0.12093855069682234 -0.012180242015592804
0.063955000917391605 0.10802769541980795 -0.0076936014055123524
0.07678426182114087 0.14611433907282922 -0.013843424090003442
-0.0014104423254788674 0.13673862064389514 -0.0042400380213664466
0.052223593821528219 0.098408189648679603 -0.0094778007173150179
0.025838305577530394 0.12585366532654629 -0.025807166239106914
0.036756996679145601 0.091994823267309123 0.013007533747981005
-0.049917418135594298 0.10657423381308484 -0.021335959782611724
0.034358321093952947 0.053772448879198208 0.0030401619964925113
-0.0084519008086057744 0.14464068513459272 -0.020272779971357277
-0.096041910527042987 0.14600313386634739 0.020327449784792975
-0.070493129816628183 0.14035608554339063 -0.017546899658765758
-0.023684873842878363 0.17439293820647322 -0.004543576244556132
0.032618637111909592 0.058597988291825526 0.00094266824643390434
0.0025787423481940497 0.15465411343287561 -0.020752402396153013
-0.059709692540660136 0.095891048287139666 -0.022706935137327987
0.00024153172902752673 0.087934366891528656 -0.02493299317488825
-0.065377075217831787 0.1659861021185827 0.012026044917091935
0.070865698142248218 0.075506421837565688 0.024291304100768112
0.061194049340494404 0.084272639963122037 0.0033179027635591558
-0.011439381824631188 0.058184172556680062 0.021860570779652373
-0.039346578266252964 0.055676637964407291 0.0012463704298054303
0.035771086717317879 0.12803868182208156 -0.031933117516689973
0.077237735319419368 0.14698441046902794 -0.0078307580419052242
0.02113268515656308 0.054799969654107043 -0.013031872465527172
0.044495923193368675 0.073377638303740667 -0.032250799254332357
-0.050732313480401407 0.15900698202113606 -0.0015025406439063539
0.014863383445437658 0.087169186428740497 -0.022697864310337663
0.032440760023375349 0.082024135033986825 0.0021028306299133862
-0.021449554314237798 0.12343304921715692 -0.016942235180995035
-0.06583747087063424 0.14358679159248763 -0.0073298910879387134
0.036372100160664105 0.067680053262114862 0.021122184814925227
0.03029800138930042 0.12534758863568374 -0.010848509452649424
-0.072114189907454482 0.11653422667119313 0.0030229264074047397
-0.077414910082707025 0.068901415346575193 -0.018896317299135341
-0.012093359048356773 0.1732232614738147 -0.0099330544560854075
0.047328696100347199 0.061530427744992115 -0.030151531526329583
-0.072393238200895729 0.14915157036845841 -0.014708005563837874
0.052149403163337632 0.061477596504538018 -0.029987569304017993
0.036932651101164032 0.12227415982802053 0.0063044497838528881
0.087179802836854878 0.14560372879981343 -0.004411079848811646
0.027454098721842565 0.067679900228891254 -0.03235972191985579
-0.013060296124159454 0.12983521538605014 -0.010759627061397683
-0.038997237782567765 0.062999962748065602 0.016067059662789013
-0.016567323295260891 0.18795395339624479 -0.023728126200365206
-0.058179718798925271 0.15435324320869648 -0.00075076856218260284
-0.035907561873129538 0.14910480595030889 -0.03684990583415463
-0.053243216663335709 0.097238034733194145 0.012016097871299139
-0.044302221632329504 0.18145128061683558 -0.013543534324440762
0.055348708633886072 0.15116893686960059 -0.019255901921248559
-0.085703405987455017 0.059599774260856241 -0.03546597402936226
-0.080783117979956465 0.096698848954761468 0.0082408086879549956
-0.081917679867185095 0.14931061418754141 -0.0032776183339744891
-0.053612142848809316 0.069649139138954277 0.035502367143340284
-0.062231121166216083 0.17484760894035031 0.0045650190483113289
-0.087991662255022682 0.16939170804530995 0.011205665249538508
-0.044348948149421578 0.17026766360223497 -0.036743334152211947
-0.086823976628578284 0.064075971499219911 -0.028222771502614926
-0.013070583348480071 0.072404372691292559 0.018094741906212655
-0.040086024140590086 0.055738404160673313 0.0012768574948608538
0.045997943343362546 0.083467262618461477 -0.021950509576960198
0.035030360445260131 0.08130175939110347 0.028233743321605387
-0.028323972874051043 0.16239906284630132 -0.02674843356695504
-0.022077126488336943 0.05763770718845556 -0.022240846693902014
-0.091687373763420885 0.17146470663792168 -0.008167934124558747
-0.056205107413042167 0.054024421511191752 0.0010305145513566146
-0.062610553275888617 0.16110811473081754 0.0038170591745177586
-0.022323315702148398 0.057209072505867264 -0.021938565027952255
-0.027098964782948883 0.17075596877939117 -0.038453458116399789
-0.010447655311018782 0.16209557342035535 -0.0100687609722706
-0.039341281671222111 0.12170334547670585 -0.0020706030504214598
-0.022521408271128585 0.14777957453397733 -0.0091103337259196022
-0.038532460771597998 0.071993245006841858 -0.030738707101503115
-0.025846506929439895 0.15047440529360429 -0.040166042617222654
-0.092470473294402805 0.16687798289587491 -0.011462759342105609
0.033524016258506907 0.055077460476535736 -0.003878776724821521
-0.042154198448353122 0.17524251345719247 -0.033445109365776111
-0.056559439420289702 0.17048757526337752 -0.02887782333845575
0.0031224379320548066 0.098053370239656087 -0.0038827232287647053
0.056832940227537473 0.096613411181143818 -0.010683316007899691
-0.063650729992939178 0.1431156790222354 0.01063125062801921
-0.075311956425494903 0.14073406292351662 -0.014127124657921585
0.046216547362122884 0.099784760824662019 0.02479056224109261
-0.035904781841882887 0.098390527673766839 -0.013027283587007676
0.0061063015385794412 0.15003601907932282 -0.01173838567798168
0.039950666048548487 0.10776376778095777 0.018103678045040046
0.038380257318830963 0.090406115701484685 0.01300967452791036
-0.039300176826023485 0.17695689013785043 -7.4270451614508518e-05
-0.021970488856622127 0.090418602289096553 -0.033528541105632206
0.044815631804533101 0.058747368663370249 -0.021194705549278152
-0.078837685866533183 0.06432780635194732 -0.016553385518685196
-0.013824961591442081 0.1505773605973979 -0.0093268145172212668
0.051886511834068248 0.074119863151609303 0.021208166846000197
-0.027872981625028298 0.054796348593614132 -0.03653543334400474
-0.014602452699740462 0.091339392983992948 0.0077660812141286109
-0.081647422050557319 0.15061916104848433 0.0087823511319113038
0.047760801254601026 0.077765675519500588 -0.017037862823324094
0.073754328618701917 0.1437837199129087 -0.0080983113724314593
0.010077412653522225 0.11614713188142035 -0.0066702855913757797
-0.076606832952750573 0.063400759781458274 0.0084355379986256161
0.027540707125585394 0.057835111798813198 0.008262382165165354
-0.010886022728012148 0.12784841163222421 -0.0058068643239631351
-0.083769850544433325 0.069697328574287593 -0.029011510972741388
-0.021741973940496997 0.1607448254373938 -0.023688414372197316
-0.022497262942058973 0.11349007542424279 -0.018920622913112538
0.017732134383934915 0.11940746938023861 -0.019889108537017822
-0.043300699456644241 0.17555362941662486 -0.029143603176847933
-0.085625069620538452 0.14952403777431708 -0.0023402611323499948
-0.018409527928220502 0.056678636363741791 -0.016178538453884186
0.042564095476826908 0.061391313512893612 -0.025183562321526781
-0.0070730975124004619 0.14115168111700269 -0.016078809079628165
-0.023791243520346211 0.10539431708909745 -0.023163356030467385
0.015488698009751209 0.12615673182065654 -0.032542926526607022
-0.038979367272666945 0.17257178998377901 -0.037253568821489773
-0.019723140521985146 0.12144735533550743 -0.013321500505747912
-0.073783107519651087 0.16629284377244896 -0.016391666201712604
0.045938540385461371 0.075423216053585512 -0.00059558137002781229
-0.061996301854923233 0.058683216977439091 0.016343276815356259
-0.00046353374827757268 0.083179070546144443 -0.021723229841702434
-0.090242873503030993 0.1422849808113183 0.0049459963420049255
-0.086360324888740472 0.090511103747074759 0.0010994967753838532
0.0098748606597959757 0.10415108513351443 -0.018444234515827336
-0.044838162978776422 0.058077169603906978 0.028038810482572937
-0.016930890978324963 0.1061941498331935 0.00052621413185858221
0.037981625706749983 0.15929462872927566 -0.022066470222744328
0.036696404482215041 0.054732562154210893 -0.020785076316444301
0.035583434056425771 0.078766931927662043 0.0063598922991743353
-0.074899561420449595 0.14094608103540765 -0.013145721285677888
-0.10431084945269672 0.14803710741033246 0.001584931841486163
-0.048866074201422895 0.17760431027506948 -0.035458696536794017
-0.050592300119843961 0.15862851420476629 -0.029917459447547798
-0.059145182292286477 0.075120314697066495 0.034310402823527257
0.046310709597866366 0.11211644627609861 -0.0020584596330686551
0.029593276933908858 0.074002631125918428 0.017731614449220126
0.011539823435243766 0.12742083146567512 -0.0030453927935651061
0.041080090466194055 0.067727797088736788 -0.0020041883069435145
0.0039650569018224308 0.088429108043971236 -0.016415237430125924
-0.031716535608028111 0.17665587961421955 -0.0046960522701533728
-0.029152563458451249 0.13527783722840908 -0.0079959484881498462
0.026873042259641586 0.053826367431036228 -0.019252659848887303
0.015515485191822031 0.14977972672675199 -0.032016106641088851
-0.010747688991822844 0.18647388302281423 -0.026790076902427077
-0.079469828194350223 0.067944880570844496 -0.02572336345485848
0.015108498287847999 0.11754213386192178 -0.014708832500523942
0.041287394806428221 0.076451588620530059 0.01248070655095177
-0.072925009259969364 0.05759226508397728 0.003956833937826012
-0.00058964408621172445 0.097230648891738436 6.3205810360262633e-05
0.059568684404568549 0.12549793843310941 -0.027321042069795798
0.016967187943550576 0.161032336666734 -0.022040661787755704
0.025820125545857716 0.06878142352775049 -0.04100177844644886
-0.040492931422853921 0.1268646851290221 -0.027302342215772071
0.013724527688097262 0.11917137708304271 -0.0097285981919012672
0.046704049727478776 0.081745046531912627 -0.030199357319866688
-0.065653224011996456 0.16247845214472587 0.010948107667334672
0.0075078113218808125 0.15818268860157197 -0.021308320213764231
0.011743302492663206 0.155771907138018 -0.017967455014482627
-0.063766376385729628 0.065703690278421906 0.037085229279155668
-0.012838588776969922 0.13859487716403046 -0.020315923644203825
-0.077042397034434468 0.067679388468786628 -0.03161944538056996
-0.04430013506766977 0.18144990644214853 -0.013541447356315009
-0.026106861773102341 0.18500585325985411 -0.026507400301108791
0.026928360635509588 0.053719066899538426 0.0013008224786549864
-0.0067314139150873075 0.06966564784568402 -0.0030521050008716698
-0.052319604188921759 0.14185862058181939 -0.022979729120785358
-0.065389135494837269 0.15352118243912141 -0.0010616369087265447
-0.088431599272345743 0.17427287241643066 0.015508094621415636
-0.050685593475369266 0.1440152703650909 0.0065775808730994976
0.05699856396000505 0.057869408636028803 -0.026098085444611539
-0.033321677367345245 0.11631963612113629 -0.015823670614355488
-0.087594468458559879 0.16891368636397355 0.011489366011559098
-0.055655195316338182 0.16120947643232833 0.0066839803316074151
0.065148619087461501 0.10253131359777216 -0.0047029126451181968
-0.041882968834890823 0.11734190965186996 -0.0013846616198605053
0.042774852351228757 0.0830731628837061 0.015444935774391622
-0.089169026861939671 0.059268265340964292 -0.0281254592959999
-0.039673639622365808 0.11628447090142859 -0.021411426412583045
-0.0063333235860542529 0.13875599318193396 -0.010766983126876652
-0.024061028962922833 0.13034883845037118 -0.021022387118358059
-0.066500596851601854 0.07756254012638257 -0.032241834403810656
-0.080371837308444286 0.073584119114458751 0.010323635248159642
-0.037784727512111899 0.19412131803835539 -0.019132066253666934
-0.086060740593703874 0.17864906729131119 0.0064488157394561327
0.059752817235893055 0.14586332897421642 -0.018608061967093512
-0.041079551274341146 0.16616930415639167 0.0019273641220496174
-0.018289310410278994 0.18244402480509872 -0.023204855552814596
-0.064452153196170037 0.17481201481552161 -0.022266113011654064
-0.056335818024284015 0.059900878656698971 -0.024927112064601416
0.044528929014231 0.15810771370553833 -0.019724613433910642
0.094252638340801179 0.14846021189238079 -0.0054588883000012975
0.034852990968085369 0.056707514400054754 0.025486858137671996
-0.092477529813052753 0.14313342398081202 0.0060686880938012203
-0.037531142168786648 0.14241267369467608 0.00031857742230811297
0.078043505137748576 0.12530793957415212 -0.016367156833724601
-0.041596839220498019 0.070509570082290543 -0.034768522019489843
-0.010447654334517574 0.16209557459440369 -0.010068761626934224
-0.010488928098556342 0.13685946012806238 -0.015163614278354137
-0.012593525620549498 0.06198722412681313 -0.01488685487722608
0.044686120668489926 0.054932375914661068 -0.016825562332466727
-0.026453231965013001 0.16677599315567262 -0.040391552364176617
-0.093477500275843894 0.16536302032135733 -0.0070121716925488388
-0.061508588769006889 0.072630053676200443 0.039826264314557921
-0.07838083473352829 0.063443611151497617 -0.016382229043509149
-0.10021027897797352 0.14844788365735101 -0.00063019298503166465
-0.00015519791846914117 0.091921316431781377 -0.027817670261191446
0.035099569659286109 0.097001356995309082 0.021750353645855626
-0.063602391823264312 0.09650395608793931 -0.023739516908496038
-0.013178588083538306 0.072635016056745216 -0.027214690629768168
0.040146169221809719 0.056786661419273805 -0.0067791611937321116
-0.083969802824336817 0.098589710035015612 -0.01187114866377724
0.0047618494529595269 0.092304365177845057 -0.020317676076703924
0.04949501194581931 0.14302812958350555 -0.0061498361899896192
0.05458048630151581 0.11018305221984648 -0.0059334843528681741
0.09161946546951158 0.13136584416940889 -0.010403460328946209
-0.025572772699869004 0.16254573835912342 -0.014376569295547103
-0.080145780200318276 0.1585077358625078 -0.014672543003760648
-0.075213396576179009 0.068622636639673384 -0.026773650816628101
-0.046905795223982701 0.056268120443922147 -0.026220794658411251
-0.068723571542986153 0.12215858898600071 -0.00036507593912199775
0.05580965761466735 0.079532084852784166 0.0014889168462043282
0.043436244163600743 0.058504965088955363 0.0041259283145483718
0.033279054514133141 0.05621164532647336 0.020172977602700374
-0.072273550349708518 0.17486127350363193 -0.0037478321917613798
-0.051112362394830288 0.16147367797518744 -0.031678378597856854
0.031371950325095273 0.08560433052858131 0.0062636812145312176
-0.031264804415642826 0.097635361943443785 -0.0096149394624937962
0.016220011680064809 0.066945550699135686 0.0045120126994321608
-0.033064669292584691 0.16109254991031896 -0.00066472262809676229
-0.082093768621378363 0.10038467501565551 0.0052489794434459197
-0.067913531516244574 0.1241204987489216 -0.002687034238205347
-0.05417509013731072 0.084519815290150221 -0.033061303598238438
-0.014071229880589725 0.17264255717590241 -0.0088892086898837309
0.021729222163415836 0.056869401717917024 -0.020677882363326777
-0.082858159796139794 0.067798506860736504 -0.0087650835322806257
-0.013600078706115673 0.13167936570394401 -0.014297259430108063
0.04491514284583719 0.09191764969213248 0.017079419123423346
-0.067957769513779145 0.14039918808910651 -0.019055124180084398
0.037072776255558666 0.076151381538649643 0.010323895228113533
0.040340461304910209 0.12035879755865271 -0.0022321324426513652
0.038077068874599877 0.10472833784397476 0.02219779511421846
-0.086530320364216026 0.17223978825842623 -0.0074155029130143629
-0.039367292271250569 0.15378619988074438 0.0011120660687158302
-0.090671240582268331 0.17491045098427896 -0.0049151085908096526
0.028247575372524904 0.076444756707892164 -0.040532666414971018
-0.089764603906627868 0.17894713163225867 -0.0013926270370002844
-0.00054287964591675435 0.080942120937975051 -0.0070932902670042854
-0.024073744918509492 0.13032253993493567 -0.021013254135521669
-0.035427782508788544 0.061816931938340307 0.022871559994990711
0.04968101183057675 0.089025945058328171 -0.0098417793332304972
0.034754429159679905 0.053709587044252743 0.0069760717934865529
0.019913962708567681 0.061397457850827911 0.00617049669793581
0.056292311303760473 0.053621650621087813 -0.0054621217401476657
-0.098444630252630921 0.14782650033931244 0.016568332977852457
-0.0034009548496372216 0.089156387012867586 -0.029059711676023219
-0.060755405199643342 0.17502298081354289 -0.024819917707366631
-0.041077512103056685 0.11084595632578857 -0.0089185941144380148
-0.035306287039366828 0.14493553429556649 -0.03538770159509403
-0.023903386976632468 0.098279320846736212 -0.028015026674605766
0.041631067157737629 0.073462235735836226 0.015221067954052241
-0.03733637905222785 0.060034088169232523 0.013250038865805966
-0.029823233329000252 0.1206134987094426 -0.017184509094813026
0.044934832636871001 0.056041791055060824 -0.002740857233640745
-0.059128898524107541 0.055463880859642364 -0.018486423764679127
-0.062136814225071835 0.1267181123232837 -0.00030421303540005811
-0.0042841322207633559 0.14983490344053849 -0.020427819567585711
0.016713921469379459 0.12132809562619011 -0.027767524429825087
0.030850829110275209 0.076613023504324154 -0.035354422296068347
0.0077676897528903607 0.060100658630079344 0.018924318327646083
0.078691566289483914 0.086552241879145828 -0.0015973929558868629
0.044719272204106882 0.054657647808077754 -0.0071078638632406073
-0.092431655249794797 0.1707351785492921 0.0013063921975027457
-0.098025224318966472 0.16969437804180676 -0.0076114478519158481
-0.026098043503733199 0.11295798356657921 -0.015145309419314646
-0.067749970182739622 0.16301268083526124 -0.0041813930139315203
-0.030490427140909576 0.12945567121536872 -0.0095714429143471513
-0.072751926096923436 0.11904644881757229 -0.012756501375721754
-0.079008900189739092 0.16190583462328034 0.010925409810024734
0.051152525107745678 0.15459169527501129 -0.019639284188575749
0.0752265292355737 0.11572882018780815 -0.015276910685850902
0.037634816056908958 0.055656697774370469 0.0051838052554017584
-0.10166949308512692 0.14869162939920194 0.0089943970281615958
0.054025221048231112 0.10559000826113984 -0.028097652964078391
-0.027356569208689022 0.16970598133448453 -0.022233639308891676
-0.026523033660896859 0.17894411387406853 -0.023145166103154712
-0.035642196687263622 0.17166822523957334 -0.028354877137012634
0.0530339136405093 0.075877457237894255 0.020372477159981469
-0.044713226035432325 0.15957819321061339 0.0018532464731690318
0.06429136202905153 0.12100129619472477 -0.012193034318540602
0.053812767756090361 0.096677166040135529 -0.014707635062403929
0.011860660058131255 0.11439042025388828 -0.027383663466239071
-0.014885695003190796 0.13590784612358334 -0.018385457689599406
-0.0099478142890878033 0.068347732017151983 -0.020630763302161462
0.040641522771860207 0.065550034513829417 -0.042541366348501385
-0.020159897901676042 0.15574831598894187 -0.0049665808995806521
0.091620453070059463 0.13135459617660561 -0.010402784440292892
-0.078828471898486518 0.068105245369615097 0.0096060175101788398
0.038943166350835522 0.10494534774526795 0.0092090434518093765
0.063897095630493533 0.10957101873813983 -0.01330047980923336
0.021682942289535524 0.054486218010480744 -0.0070584755980926863
0.069549635653942371 0.064741481439152357 -0.0094506129612828144
0.048403326143163651 0.1480666204020479 -0.0094363045552208601
0.035569101587948952 0.060075644495209225 0.014508737254918257
0.022722408391004957 0.10307955025419885 -0.020143533542710163
0.043359251279882632 0.073351955330520122 -0.0026617004161984962
-0.080133588168175077 0.10855288670976583 -0.011335590172371528
-0.063395089610356198 0.14463428474579215 -0.00074289540076426035
-0.067749970108330837 0.16301268082510983 -0.0041813930704521106
0.077018091674184927 0.1227191655899787 -0.012664474525956489
0.0021265701296676225 0.15458690292849694 -0.020743212952002921
-0.061716258879562426 0.14446677888382609 -0.018151657222864357
-0.059973818391616161 0.078002038195796375 0.020146731123818155
0.05571645588021161 0.073133705568378296 -0.0043233721390580748
0.055417518567671041 0.1060167768316217 -0.0087997868217153403
-0.085146183538315059 0.082117664328570331 0.0048774425259369321
-0.025833436192003931 0.10174371398827008 -0.022905132007595756
-0.045508530313370626 0.17966707073856386 -0.031427050776471684
0.020817954731949917 0.15758866881769099 -0.024299038505076118
0.031570870243084692 0.0726808653208946 -0.042694726217359376
0.04173703868779248 0.064789039460668552 0.010319714227434556
0.059965338308225299 0.11028559997927107 -0.0098608637201059168
0.018655830214364892 0.072575429641476646 -0.036839721985891048
0.016607259210255999 0.12137655603329811 -0.027939460431054181
0.040355197106642419 0.095120242924271972 0.013974003255876576
-0.011868177946131389 0.062514856563876578 -0.0021590268189630103
0.049630678002820949 0.075499253788296861 -0.0031007375963031472
-0.03391176737685038 0.19537514041098103 -0.022196681498739299
-0.00099198641088435891 0.096642980478450644 -0.030751456065215524
-0.031149955826961766 0.14889406514541029 -0.0332276268638576
-0.06608227892425364 0.15110087975414946 -0.012831329434936159
-0.05846453742761834 0.076594104691822623 0.02303086292819281
0.040713114486273815 0.056292793550327527 -0.020554266500593454
-0.035267661975393425 0.17538183200743088 -0.023752016908979916
0.012938038484991428 0.063518621706438183 0.023942390777369704
-0.037493625222527485 0.11010187096971399 -0.014146642845072494
-0.053952478972372202 0.13204231165797148 -0.023513992323851412
-0.096695049522228876 0.13947348510237426 -0.0059323533993442474
-0.070687940479063044 0.14976124971199586 -0.010166278280734303
0.03702023867550408 0.089404809081380668 -0.0028815143492089889
0.037481176202675499 0.061564694115558746 -0.0039264442080665495
-0.089299118384828402 0.14949439796327565 -0.0063682539532863812
-0.057020055753121524 0.073220579196948327 0.03712984783649468
-0.0020429021042018903 0.19442934426488065 -0.031068794507292229
0.056177026699186415 0.13430607425708663 -0.029197775157544851
-0.043410428600487251 0.056532843666213549 0.033024496285806414
-0.026401374072078355 0.14376742363532077 -0.0098780082268258816
-0.067602084126570663 0.17499080888308363 0.0004806351492206251
0.042055083237465284 0.076043767208934451 0.02097203387857938
-0.02438153758105429 0.16673853431222516 -0.022976279252933118
0.035556029304760858 0.15075282770751247 -0.031977535517879775
-0.077117308237475229 0.14811134178560514 -0.0083454936246191921
-0.089971095107022434 0.16294596036179612 -0.010989897853594199
-0.055833755158060001 0.14396441008219568 -0.014337415255930132
-0.033658477148195622 0.18252504887931489 -0.0016047186688804512
-0.030587811156154707 0.18388427612709038 -0.0048541225585953451
-0.0094864099193335098 0.12236714141975322 -0.031282402949834663
-0.036765868422130941 0.092938117565134176 -0.015925263387083791
-0.011924902373217002 0.186301426050413 -0.031181174956764705
-0.0065612615970228804 0.079273192172294296 -0.026266814015652742
-0.07611138562347157 0.096283339196180942 0.011675058958037427
-0.026303693855180825 0.055187587796753382 0.023650620328389105
0.063063672044180688 0.11694432074599947 -0.019045435116402012
0.033595473267127363 0.088899522415844229 0.010741930538418206
-0.055902182089187576 0.17609944488191559 0.0025850085100256382
-0.022596395248311581 0.18052803879981033 -0.022283673082405281
-0.048540371805750292 0.16889281087995311 -0.033752671482286722
0.025521677487811738 0.057386332712315892 -0.024351876693225905
-0.018231752931025604 0.074650404407602164 0.014091503754893637
0.0030752173999108877 0.096247585873573849 -0.026605729852078805
0.032353350974090901 0.085143747159677902 0.022213811777734467
0.0051901409002804736 0.058835870227562016 0.012383332609515301
0.056506305212355827 0.14991202184423061 -0.018993719184510947
-0.025845714374854657 0.15047388351852672 -0.040167365227955297
-0.069600913383600263 0.17301831453848657 -2.1633662692812929e-05
0.083923440643641864 0.14648364646125675 -0.010344239513027395
0.017873301020966369 0.13016634742040667 -0.0050599495484746669
-0.031118613250358241 0.16557485071912575 -0.028424712747914804
-0.044405647117019643 0.097147795104243623 -0.0029738763956599951
-0.011009838927089437 0.068551968173604455 0.0021606674162131406
-0.031150824537678548 0.096063499183115492 -0.019936585736797536
-0.060746640160196222 0.062136407473933751 -0.033988663881207026
-0.052570308464549194 0.10149998286536395 0.0092463147356706202
-0.082794583719498757 0.16458135017449632 0.011898956293198721
-0.06309947798356344 0.15455810778771317 -0.0092863149362673817
0.066403479093748871 0.10476429428747465 -0.0008345589432013676
0.018470649022808927 0.081287142227486953 -0.0039574371305223588
-0.047792050812781858 0.17489260295691633 -0.032687893529955346
0.029685309307192362 0.074405848216660089 0.017896170994244155
-0.088310436469068915 0.140095395297967 -0.0081102216469332161
-0.058267116624690467 0.15602341882869064 -0.010099250938791408
0.020066332050649224 0.063081792352215796 0.0010302461150502552
-0.029704839085090032 0.16004708658664735 -0.040962884523663423
0.049379649501353221 0.075121893635693174 -0.012044120911858157
-0.036319033123878727 0.18794332877994158 -0.01816073135403615
-0.015017403373861364 0.090949281979812516 -0.032441592289901192
0.063616157882397162 0.1054261504243969 -0.0073289345910296537
0.074103232636644409 0.062936628504817266 -0.0018376753324557537
0.028946651602480195 0.069401774935115887 -0.046647309753091587
0.036349730330099188 0.072018957431463165 0.015298819786508442
-0.10562160162122938 0.15775032822981505 0.011183724663730025
0.05971853313116858 0.065364063942740899 -0.019839775252685311
-0.062722933827453406 0.072000256636747043 0.033569709734474033
-0.033363239968410612 0.079657669817385118 0.019453624105207346
0.045204516394468881 0.083769345166151962 0.026519717362421914
-0.040143626347656447 0.15506337397689568 -0.037036146475914508
-0.02313269671299158 0.17459159312504563 -0.04296276391946021
-0.076704169155222823 0.063466717362036754 0.0083818480134723386
0.052356930920586853 0.093184276310456421 -0.011026190466612453
-0.0032545283790137813 0.14562650432087584 -0.016399772301499693
-0.01453980420057158 0.16523924545197749 -0.010347066214097044
0.028830739585682687 0.10875092103985104 -0.0091633848230271708
-0.03336030642459243 0.11628284560892906 -0.015814895986072337
0.066155047982706383 0.12707829509364021 -0.012823003971145818
-0.026439382700002005 0.1256434282217371 -0.019614682508743264
0.073550675102369137 0.065651263175480243 0.020191184293936064
0.047207449106209928 0.092545651092730705 -0.0083918857598118349
0.025320614641925438 0.16078878986348055 -0.021970535975797945
-0.079511442447016065 0.15189713980453481 0.011345082556189157
-0.074465310112839925 0.17375167982630413 -0.00031492438860042843
-0.054808593607933165 0.15542358258791539 -0.02762468008569692
-0.022453033081721922 0.10129642381095443 -0.027745218858249585
0.059518977165497054 0.12646749562218293 -0.027339358462153192
-0.069874360642172326 0.17790944685184246 -0.0033917181474332416
-0.063334987084204111 0.15090843472607879 -0.02275552402606415
-0.035675052679501801 0.082087068333896049 0.019218051514239411
-0.080180616541290814 0.10562661923981137 0.003541360606135485
-0.047924837536461096 0.14902448409982347 -0.030664198783978032
-0.060591523350904924 0.094130069418405307 0.015452835198184842
-0.028390606380264319 0.072231665950288335 -0.037943672419743286
0.039017357671598009 0.073444056986590595 0.024966686590479369
0.023191648985560774 0.14127180882038615 -0.035295798880858792
-0.093539060559510362 0.17361447336712069 0.0033805187219754485
-0.041268829753317957 0.099414891127532615 -0.010703202131999831
0.061391965513407414 0.071339701253719259 -0.0035857493407569427
0.041303346404889515 0.069059619827890981 0.014484219517485178
0.034943280108479184 0.097101217703407627 0.015137222216189834
0.053150954124920255 0.14459234366770127 -0.010472160432044204
-0.02523220874489026 0.065907828828168716 -0.040318860523224996
-0.055616730115555478 0.16016883930267459 -0.0095063016639188869
0.057426021466634079 0.053581510255697254 0.0029403366876911779
-0.056383866282706717 0.10588891303937374 -0.022383662521573845
-0.073712657511409194 0.093442611347206203 -0.023277908987421665
-0.06415758012437428 0.15316464678002067 0.00034053759154285221
0.042124746164044852 0.063267137644868854 -0.033171162082714631
0.031714884155536617 0.061604134091373317 -0.045343085459223102
0.039966914452221329 0.065295461707806646 -0.00093671876767346929
-0.10246787088560858 0.14522988676843304 0.0058224537369903941
-0.019003287995453939 0.16756607940793586 -0.0077651571481908172
-0.015086496774319962 0.10897402930156459 0.00026017887076662359
-0.10023151785286993 0.15130742950333043 0.0048781656407680604
-0.087663393861929326 0.15956578056824725 -0.0058638029200511876
-0.01493541540052957 0.18850304227119452 -0.02934121618852252
-0.04926930978247062 0.09271568955679288 0.017435658556696362
-0.044915666180762419 0.096837642007841146 -0.00035750856296105986
0.032202570500187759 0.11420540575512234 -0.027356866204018605
0.0070559508853318357 0.15430625781743035 -0.017951649686394126
-0.021398800719357229 0.13685731438674159 -0.022355677685133055
-0.093300746128349835 0.16702145527898193 -0.0029257880300302408
-0.033578070983373814 0.07254902885179576 -0.030756164121553478
-0.017443531646402 0.07947885588763709 -0.03212496582363783
0.043592837634341956 0.05829574781668171 0.0038248046370520372
0.038327824522723937 0.053513384295610589 0.010386818669097598
-0.018443761374653429 0.1683573711772216 -0.010923620466241587
0.0054324675469971063 0.14475424354262575 -0.031044198671272453
-0.045895948014428381 0.056574518167847122 -0.002551890313857063
0.079048626121942939 0.12568339972002279 -0.01182906012453821
0.020985825317171445 0.062999445943951016 0.020774512120297683
-0.036421610306159265 0.16758837177523739 -0.00014059886772897816
-0.10344835224880131 0.14319913893260011 0.00061836697839146081
-0.020624684735047985 0.14722201070120255 -0.023418722583770514
0.027389124416242715 0.067739467413107532 -0.032401718022503523
-0.0070926226894688429 0.18862287962087881 -0.029646484420810824
0.018527456881706258 0.057490803066427773 -0.0098227121038551302
0.064570589836470973 0.11473459661908882 -0.016724297729240115
0.061675149103266089 0.067632016285079241 -0.0094985462112823788
0.055743268507066332 0.11189398115893415 -0.029293911170921734
-0.08546291935552397 0.074584145939160698 0.001709411899542391
-0.0089957726218323087 0.068219647860134056 0.011341748880916349
0.056396383279193739 0.053588971496905835 -0.0052598884241571208
0.069490471135898471 0.11051273667243673 0.0021487019318295816
-0.03204718114772357 0.17525633764631113 -0.020448173768254207
-0.046874284242541864 0.056258535487595407 -0.026217164245561496
-0.076798504676022228 0.1500692918403875 0.0068610975605687199
-0.085663372667965976 0.15993565844290533 -0.0081481753921269634
-0.077230492951404411 0.16555492246390999 -0.00088538309487683599
-0.040250192178284953 0.17977216106556315 -0.034485794385682174
0.011335363406780201 0.1584776778153886 -0.021231767727497769
-0.01682922828390503 0.12467821192085965 -0.020887768453106033
-0.011508466271136648 0.058076606073338082 0.021902338673924191
0.035379767211837235 0.14869253289870762 -0.0048143085837148228
-0.051679639497770491 0.14613171162808111 0.0017842634445922976
-0.027615701707085986 0.15580991436282093 -0.036817641473316842
-0.0046627174825493974 0.12888357535829156 -0.032181856649465594
-0.033666343506134518 0.092446155001398342 -0.021655890575030496
-0.081069822015635007 0.080093316901256831 -0.017908048399924662
0.070184577758670902 0.055356723866666034 -0.013150152956201748
0.064992285926219737 0.099560265952091609 -0.0037099454608852918
0.090815683275917006 0.14511688831451325 -0.011425212025725636
0.074066926908075925 0.079086720468600005 0.022989222110952987
0.029332064990602109 0.10821858392174313 -0.027715677513209108
-0.067170114754475208 0.069646341955563906 0.020456721992043032
-0.032559002371820793 0.071406911003902548 0.02304703422211753
-0.0177905878909379 0.15793517271785071 -0.0078604109245172631
-0.026090106669221704 0.1129762080686485 -0.015147700726411775
0.037020238688316241 0.089404809113281095 -0.0028815143531986313
0.041860783014133859 0.079164259213271485 0.016942870781982842
0.033563065497844123 0.05684459050787162 0.011972388258908666
0.023966285473744752 0.063080505984805246 0.020234994270005836
-0.054461095211950993 0.14572030744480133 -0.0053638068061461234
-0.061159928037239707 0.090806838060165027 -0.030812064802656053
0.009042548678379515 0.14805390237022101 -0.0073807766923197904
-0.078246800671947878 0.17469038232683456 -0.0036921296250894331
0.024795450072341272 0.10150721792490375 -0.027851095118692427
0.046105351144837041 0.14773250769604324 -0.029812786390035911
-0.05850700670901661 0.15646741260338898 -0.02002199149007166
-0.094744939058679756 0.15028038736774513 -0.0028517142085510848
-0.059237396093542165 0.16995597426801676 0.0052329485983187256
-0.055123878668908437 0.17514069165786894 -0.026871162369410385
-0.074611695299371422 0.11441806785993749 -0.015131220001003087
-0.0966900533091197 0.13947331526878576 -0.0059337694933069762
0.047238183558378881 0.054436044992001699 0.017354083803304762
0.030687426938041773 0.16091827125312924 -0.020939972399440683
-0.06498247053213041 0.090437533391541092 0.015587179129740147
-0.028100077626147302 0.10741891190405743 -0.013961999928062062
-0.05842445451285963 0.14338822531590401 0.0090376290608576732
0.048847385013884984 0.14943666652701684 -0.026007906214976832
-0.0096952735739792816 0.065382525212670975 0.018685159884145736
0.038312030328992303 0.16003801109570437 -0.02017264822232271
-0.057334190166919118 0.15948593483461637 -0.013742554641858697
0.032688544296432233 0.06595110947889854 -0.045969405352699992
-0.090665347311531377 0.14697539445228924 0.020489665186355213
-0.061279077728654013 0.074437857988358641 -0.033992955549458255
-0.033052512662921696 0.055528133716003972 -0.026253026477295695
0.071964532097514314 0.071042269615059425 -0.0016242599367447834
-0.031628510049451143 0.16641809884461786 -0.040784867366311234
-0.10141345812775655 0.14211619239707393 -0.0026311697237489094
-0.041909374179023004 0.071796511049476763 0.028527233662808182
-0.034283249345938661 0.14606497240306707 -0.00084045031746708687
-0.077470543839245745 0.14757869552341155 -0.011076437783832707
-0.021500169728065652 0.18658038318081291 -0.022055216656777409
0.0328759649584352 0.074956404404879773 -0.036710817241665646
0.050125843435720685 0.076307608092149995 -0.026976241171742219
-0.062049051794531934 0.058751465595106307 0.01629679345102494
-0.023900902344662973 0.11884425449511499 -0.015649042990795139
-0.014200054482314844 0.06040905002220523 0.0083125280341272839
-0.0052941762381309839 0.076127859504029685 -0.022392450447070007
-0.032400944473545287 0.12555750156637316 -0.022542909679999241
-0.047491072569401785 0.16504853731788022 -0.034139054721596625
-0.091749822742174025 0.15150354451263903 0.0013899566468771659
-0.06645669533850089 0.099737571132103922 0.012483426502271836
-0.084545645781501477 0.059918291574239377 -0.02460854904710855
0.059600707032567438 0.1380917161309145 -0.023661146329963748
0.02101761740598641 0.12677812665603594 -0.0096078651493316809
-0.089551337702908532 0.16264858837374849 -0.0058171023371337647
0.014053749097451997 0.11637511798285666 -0.01389605988769454
-0.01035771087717868 0.1912611282929873 -0.02677601643732419
0.049006254826780317 0.057854036883378208 -0.018603904709252987
0.0081453593264952003 0.061924200391026238 0.018240944183026703
0.029484217595453159 0.057880605825220977 0.011948726507827179
-0.040396627124748452 0.1908033981429848 -0.018246672813235588
-0.030473831444026794 0.12407926581156097 -0.014420183831724309
-0.062360514982967581 0.12672935590097725 -0.00050155791905739716
0.055975488019096895 0.14515297578840802 -0.014637025788446357
-0.0030332009048982351 0.14576086721355486 -0.016356549737632696
0.073477700851220157 0.082371106488613691 -0.0008535429390449001
-0.083412183127161005 0.14715650955920145 -0.0087005176319804554
0.073447662331251953 0.082223587150362126 -0.00084394971066034815
-0.022130679976191073 0.18159846482201975 -0.027564262645794153
0.035452524312784048 0.068533146232491848 -0.041171224823125956
0.0098547815306124723 0.10410350613596674 -0.018583618057486349
-0.05867608867708228 0.068315875469858539 0.03817838678850341
0.042749109729402462 0.062483780757165486 0.0075181061301559321
-0.032917367580299499 0.071817456669911503 0.022793317869053913
0.04474121200402198 0.053983696842242135 0.010665808497064772
-0.064043006372783706 0.061332979406223821 -0.022463744564687221
0.032170300813752051 0.056921904868104799 -0.048303721153463541
-0.048149268177348201 0.17274022621353008 0.0025875982731813408
-0.023382747432176446 0.061693557675226204 -0.030605212572483009
-0.061025038017467122 0.14491689963897203 -0.005370395159311145
-0.081470562697504328 0.14093856803938096 -0.011440872079133796
-0.065216052127568008 0.10493118838758834 -0.022181672171491352
-0.031658358322471256 0.10250364700120611 -0.014060175771323897
-0.052129597203974733 0.10989990272907052 0.0070364811704564422
0.069713668345069854 0.060967871741965163 0.019838972041679111
0.042503300288407257 0.078194648966026861 0.025360582852140635
0.036876880131315404 0.063069784377930913 -0.047975972269954509
-0.037647406121296835 0.11852277778232698 -0.0069014390736163878
0.065201794445701775 0.093149560892751004 -0.00019100091414023552
-0.05501849505579931 0.087990659148196398 -0.029625191557109319
0.0025664813541544447 0.10043913600268249 -0.029512546927123628
0.03554983368761222 0.10363576756407775 0.013668387006538772
-0.017832457032326342 0.12660547862952762 -0.014996179879356097
-0.035892624628269303 0.12089774691549653 -0.021908729931156626
0.089821203746535919 0.14074551702796276 -0.0081201503166833926
-0.01850711775703125 0.06750951942084453 -0.028118225377459064
0.030273215260127464 0.12533391040215627 -0.010886662725324155
-0.011121673503381439 0.19110905152328661 -0.031074096966059596
-0.032404953164657885 0.058199862302651423 0.013843871963687311
0.050250851271397931 0.055146727489780889 -0.013701336008906396
-0.047852692359374407 0.061402762610862499 0.0151689605820592
0.085823478165462971 0.12847673895787204 -0.011819256211094691
0.031680675492911405 0.13699895060108755 -0.034441941951705191
-0.048554418566342891 0.055088962939655678 0.031288660622815975
-0.081985192287406153 0.065998397360014338 -0.019410762571221873
0.048037208799849199 0.077464604789718908 -0.017007393692899431
-0.064344176195358566 0.12442126063676356 -0.018682444026787079
-0.038364874472826702 0.1903692066495499 -0.023105860188686853
-0.084524310260132851 0.15061937121071672 0.011705343832321287
0.037641195089121338 0.073147018739710648 -0.035968909229698573
0.044818408802944333 0.081553735764041541 0.020695526569607742
-0.084987504060098543 0.061437151087585927 -0.020853477375139432
-0.021285411259339242 0.10760101737879595 -0.0043306093976650372
-0.017845442806878286 0.092069286701897207 0.0058384460720966817
-0.01809280515055782 0.13056386278814239 -0.017897250920088346
-0.042821310202667724 0.1576159557083596 -0.036106672797522034
-0.041422655318164671 0.060688768548922634 0.031604150026671628
0.0058751599757002797 0.10358793384137303 -0.027378302377626201
-0.062980984722811301 0.074223798550740669 0.022291940473006571
0.0025113855417865645 0.10375418724845466 -0.031242263421922628
-0.035479631129521669 0.068727716534103991 -0.036891754167519684
-0.013726470812502523 0.11593904559821221 -0.030137363975268196
-0.022489561556510867 0.17418640614500627 -0.0067967876993554905
0.032738727662951932 0.061838261686055419 0.01797292500676758
0.011134190948168969 0.12187947104242629 -0.0049313397768781034
0.065202100672145907 0.12299042966629847 -0.019052576767402515
-0.040708951940181669 0.098571747506475099 -0.010435009201953499
-0.040626823122154425 0.12671431319729884 -0.027271601523209482
0.020972703073281983 0.1378174847921857 -0.0030893000105108024
0.083068532277026486 0.13471374922150189 -0.017061014978434479
0.04824935367319072 0.079602585052094374 -0.0058749705037474641
-0.079742636880425141 0.065586032251704271 -0.013652211668776133
-0.022723055853190302 0.16002149354132914 -0.0040493286918911117
-0.060232141749037696 0.1406871686523691 -0.022629258067690606
-0.081069187006364202 0.080093314975001065 -0.01790869543828081
-0.053128421008115941 0.14242431804436334 -0.0097496722009786183
-0.041753489683572224 0.13429882615539276 -0.028496967587535615
0.014257294786387124 0.14970221729150418 -0.03161242484261987
-0.028576023796503511 0.1497091865616349 -0.034510979146743247
0.024261588423667109 0.061395227554968936 0.0072573821972316578
0.044829777096235063 0.070626589043310747 -0.036624740104379286
0.048088376116790794 0.06528813475569141 -0.034078802517446327
0.078975768191040782 0.099831761164771257 0.011621096044615094
-0.03238099184700536 0.092481418374955396 0.0042085817628580878
-0.0066798124815869919 0.19278661438422059 -0.028364815862645248
-0.041444436177620073 0.16730647652032307 -0.037143907907208319
0.025516644076883394 0.057390326028309013 -0.024354134383451544
-0.018009278053249408 0.18434600056054587 -0.030124996851000615
0.033949067964557156 0.090654655900911818 0.024021266590305929
0.03585419446096523 0.084010091182345009 0.0084252576437456421
0.0015800485841632251 0.13898807192513699 -0.032111260194728625
-0.096056407042280689 0.15268945404743972 0.00096748846323971044
-0.059093019679535827 0.057624112462755596 -0.021158670304605366
-0.05391582963686567 0.075533275241006184 0.034272430244012747
-0.0099047383858516386 0.06981949158583281 -0.022203415428348
-0.066587835616461102 0.17877601503974619 -0.00348059623773824
0.027061303645504499 0.066391788933780255 0.012412112909453852
-0.041376642530976011 0.054270419954551168 -0.015593077708417261
-0.010239999859269832 0.14280365850397136 -0.017971208348559316
0.013058992753835404 0.06357305643357869 0.0018384982643562539
0.035881363494219269 0.14148388135268147 -0.034754008293723181
0.051086087081642716 0.14905353945172645 -0.014281552521723253
-0.0402416488718833 0.14718800144833066 -0.035167560444095948
-0.089151708770089821 0.17519551556864077 0.015211870978557604
0.0204783988395443 0.056944968580837023 0.021462681238715278
0.080321801695131076 0.14989048849456654 -0.0083770430937942248
-0.021789041258638162 0.070258350646636381 -0.035707397665983819
-0.082133381357091778 0.17972921270161701 -0.00089294478100946306
0.025820775033027411 0.068827175817945119 -0.04096658593045175
0.0612838810617072 0.10595250213908086 -0.011113254240230699
-0.05232044021913336 0.14186055502286893 -0.022973675535137766
-0.028307520615279125 0.097453202014974857 -0.0029911891657764416
-0.018674023884313606 0.056708970663138028 -0.016735418443632195
