0.032026998698711395 0.056575000286102295 -0.050364401191473007
0.043784100562334061 0.079820796847343445 0.020553700625896454
0.046732999384403229 0.093732401728630066 0.018417499959468842
0.027476999908685684 0.067424997687339783 0.016522400081157684
0.03282029926776886 0.059184499084949493 0.014967699535191059
0.029938699677586555 0.056936800479888916 0.013175399973988533
-0.079996302723884583 0.15389299392700195 0.011504099704325199
-0.017323000356554985 0.055525001138448715 0.0096756098791956902
-0.014173000119626522 0.060371998697519302 0.0088125104084610939
-0.090473003685474396 0.17103999853134155 0.0056624999269843102
0.064226999878883362 0.090361900627613068 0.0025124999228864908
-0.043252099305391312 0.056765299290418625 0.0013774699764326215
0.039337698370218277 0.064136102795600891 -2.4373799533350393e-05
0.036349598318338394 0.059733200818300247 -0.00028791799559257925
-0.083380803465843201 0.15142500400543213 -0.00028749599005095661
0.014354200102388859 0.075967200100421906 -0.00067429599585011601
-0.057386498898267746 0.15451900660991669 -0.0011708399979397655
-0.089177899062633514 0.14890100061893463 -0.0020034399349242449
-0.09027089923620224 0.15036599338054657 -0.0032884299289435148
-0.025373000651597977 0.10172499716281891 -0.0044760899618268013
-0.034348700195550919 0.057113800197839737 -0.0062145302072167397
-0.037938401103019714 0.18087999522686005 -0.0065147099085152149
-0.017288500443100929 0.15882000327110291 -0.0097409998998045921
-0.022725800052285194 0.14730100333690643 -0.0093048801645636559
0.064413897693157196 0.11953400075435638 -0.012052799575030804
-0.056570399552583694 0.14397899806499481 -0.01308009959757328
0.064555101096630096 0.12095200270414352 -0.012878499925136566
0.0061270100995898247 0.093174099922180176 -0.013587499968707561
-0.088722996413707733 0.059025000780820847 -0.02099280059337616
-0.086141496896743774 0.06042499840259552 -0.022337500005960464
-0.020563000813126564 0.18137000501155853 -0.024701099842786789
-0.031624700874090195 0.1488180011510849 -0.032524198293685913
-0.02731809951364994 0.14937199652194977 -0.034692700952291489
0.017774099484086037 0.071606799960136414 -0.03585520014166832
-0.023623000830411911 0.15002499520778656 -0.041853800415992737
-0.061422999948263168 0.07267499715089798 0.041038800030946732
-0.059673000127077103 0.071975000202655792 0.040683399885892868
-0.055822998285293579 0.059946499764919281 0.037162501364946365
-0.060022998601198196 0.059725001454353333 0.036777999252080917
0.04042699933052063 0.094025000929832458 0.030907100066542625
0.039726998656988144 0.089824996888637543 0.031156200915575027
-0.046023000031709671 0.077924996614456177 0.029935700818896294
-0.062822997570037842 0.072324998676776886 0.029850700870156288
-0.067023001611232758 0.059725001454353333 0.029904099181294441
0.062127001583576202 0.07057499885559082 0.025622200220823288
-0.090473003685474396 0.14407500624656677 0.023198800161480904
-0.089772999286651611 0.14372499287128448 0.023209799081087112
0.060377001762390137 0.059737101197242737 0.022812500596046448
-0.050923001021146774 0.090874999761581421 0.019664600491523743
-0.060022998601198196 0.090874999761581421 0.017737500369548798
-0.059673000127077103 0.16472500562667847 0.010586800053715706
-0.059673000127077103 0.14337499439716339 0.010586000047624111
0.03937700018286705 0.12062499672174454 0.0098747601732611656
-0.014872999861836433 0.090525001287460327 0.0088220201432704926
-0.091522999107837677 0.18005000054836273 0.0088125104084610939
-0.084522999823093414 0.18012499809265137 0.0056806597858667374
-0.036223001778125763 0.18047499656677246 0.0014949600445106626
0.00017701099568512291 0.11642500013113022 0.00045794199104420841
-0.00087298499420285225 0.12097500264644623 9.9416800367180258e-05
0.00017701099568512291 0.12027499824762344 0.00010377899889135733
-0.089772999286651611 0.18047499656677246 -0.00014786800602450967
-0.090114898979663849 0.149835005402565 -0.00013179599773138762
0.00017701099568512291 0.12202499806880951 -0.00026130699552595615
-0.073673002421855927 0.11782500147819519 -0.00015880500723142177
-0.042872998863458633 0.11712499707937241 -0.00010009099787566811
-0.0015729999868199229 0.089824996888637543 -0.00017166900215670466
0.082076996564865112 0.089474998414516449 -0.0002725269878283143
-0.014872999861836433 0.059725001454353333 -0.00023862000671215355
0.071927003562450409 0.05937499925494194 -0.0001002549979602918
0.022227000445127487 0.057624999433755875 -0.00025471698609180748
-0.090039901435375214 0.18012499809265137 -0.00028749599005095661
0.046376999467611313 0.12797500193119049 -0.0016779899597167969
0.044977001845836639 0.11992499977350235 -0.001611939980648458
0.093626998364925385 0.14862500131130219 -0.0044753598049283028
0.02922699972987175 0.15002499520778656 -0.0047736801207065582
0.031327001750469208 0.15037499368190765 -0.0054715401493012905
0.081027001142501831 0.15037499368190765 -0.0068370001390576363
-0.042172998189926147 0.089961901307106018 -0.017087500542402267
-0.090122997760772705 0.060074999928474426 -0.027167199179530144
-0.090122997760772705 0.059725001454353333 -0.027128899469971657
-0.0026229899376630783 0.1937749981880188 -0.030000699684023857
-0.034823000431060791 0.17067499458789825 -0.030012300238013268
0.019776999950408936 0.1531749963760376 -0.030012199655175209
0.046027000993490219 0.1475750058889389 -0.030018800869584084
0.0064770099706947803 0.14687499403953552 -0.030004799365997314
0.057227000594139099 0.11992499977350235 -0.030013300478458405
0.013127000071108341 0.11992499977350235 -0.030021499842405319
-0.012423000298440456 0.11922500282526016 -0.030031999573111534
-0.0040229898877441883 0.089824996888637543 -0.030036600306630135
-0.071222998201847076 0.089124999940395355 -0.030035199597477913
-0.055822998285293579 0.088425002992153168 -0.030032500624656677
0.047077000141143799 0.073375001549720764 -0.030017899349331856
-0.058623000979423523 0.059725001454353333 -0.030026499181985855
-0.083823002874851227 0.059025000780820847 -0.030027600005269051
0.033077001571655273 0.15353900194168091 -0.030037499964237213
-0.065972998738288879 0.093093998730182648 -0.030037499964237213
-0.058623000979423523 0.090199202299118042 -0.030037499964237213
-0.025373000651597977 0.059735100716352463 -0.030037499964237213
-0.044973000884056091 0.18012499809265137 -0.031426798552274704
0.029927000403404236 0.055874999612569809 -0.048233598470687866
